# .PCD v0.7 - Point Cloud Data file format
VERSION 0.7
FIELDS x y z
SIZE 4 4 4
TYPE F F F
COUNT 1 1 1
WIDTH 1508
HEIGHT 1
VIEWPOINT 0 0 0 1 0 0 0
POINTS 1508
DATA ascii
-0.9227767 0.19644083 1.8830001
-0.9194752 0.19644083 1.8830001
-0.92152572 0.1975884 1.8940001
-0.9182049 0.1975884 1.8940001
-0.91488409 0.1975884 1.8940001
-0.91637617 0.19863163 1.904
-0.91303784 0.19863163 1.904
-0.90969944 0.19863163 1.904
-0.9063611 0.19863163 1.904
-0.90302277 0.19863163 1.904
-0.89968443 0.19863163 1.904
-0.89634609 0.19863163 1.904
-0.89300776 0.19863163 1.904
-0.89480931 0.19977918 1.9150001
-0.90122736 0.20196997 1.9360001
-0.89783293 0.20196997 1.9360001
-0.55741537 0.19226789 1.8430001
-0.16394982 0.17265512 1.6550001
-0.16104805 0.17265512 1.6550001
-0.15738183 0.17182054 1.6470001
-0.15449409 0.17182054 1.6470001
-0.15234275 0.17265512 1.6550001
-0.14944099 0.17265512 1.6550001
-0.13367765 0.16399628 1.572
-0.13092139 0.16399628 1.572
-0.12816516 0.16399628 1.572
-0.12477071 0.1631617 1.5640001
-0.12202849 0.1631617 1.5640001
-0.11928628 0.1631617 1.5640001
-0.1171402 0.16399628 1.572
-0.11438396 0.16399628 1.572
-0.11212479 0.16472654 1.5790001
-0.10935628 0.16472654 1.5790001
-0.10658776 0.16472654 1.5790001
-0.10381925 0.16472654 1.5790001
-0.10149872 0.1654568 1.5860001
-0.099215873 0.16629139 1.5940001
-0.096421063 0.16629139 1.5940001
-0.093156353 0.1654568 1.5860001
-0.090375565 0.1654568 1.5860001
-0.087594777 0.1654568 1.5860001
-0.085241809 0.16629139 1.5940001
-0.082446992 0.16629139 1.5940001
-0.079652183 0.16629139 1.5940001
-0.076857366 0.16629139 1.5940001
-0.074062556 0.16629139 1.5940001
-0.071267739 0.16629139 1.5940001
0.83690721 0.20791641 1.9930001
0.84040159 0.20791641 1.9930001
0.84389597 0.20791641 1.9930001
0.8422882 0.20666452 1.9810001
0.84576154 0.20666452 1.9810001
0.84451932 0.20551696 1.9700001
0.84797335 0.20551696 1.9700001
0.85142744 0.20551696 1.9700001
0.85010803 0.20436941 1.9590001
0.8535428 0.20436941 1.9590001
0.85172814 0.20311753 1.9470001
0.85514188 0.20311753 1.9470001
0.85855561 0.20311753 1.9470001
0.85709947 0.20196997 1.9360001
0.8604939 0.20196997 1.9360001
0.85942614 0.20092674 1.9260001
0.85787529 0.19977918 1.9150001
0.86123294 0.19977918 1.9150001
0.85962427 0.19863163 1.904
0.8629626 0.19863163 1.904
0.86175108 0.1975884 1.8940001
0.86507189 0.1975884 1.8940001
0.86839271 0.1975884 1.8940001
0.86665076 0.19644083 1.8830001
0.86995226 0.19644083 1.8830001
0.86861622 0.1953976 1.8730001
0.8719002 0.1953976 1.8730001
0.87518424 0.1953976 1.8730001
0.87846822 0.1953976 1.8730001
0.88175219 0.1953976 1.8730001
0.88503617 0.1953976 1.8730001
0.88357741 0.19435437 1.863
0.88684386 0.19435437 1.863
0.88533252 0.19331114 1.853
0.88858145 0.19331114 1.853
0.88701749 0.19226789 1.8430001
0.88541842 0.19122466 1.8330001
0.8886323 0.19122466 1.8330001
0.88698065 0.19018143 1.8230001
0.89017695 0.19018143 1.8230001
0.89337331 0.19018143 1.8230001
0.89656961 0.19018143 1.8230001
0.89483035 0.1891382 1.8130001
0.89800912 0.1891382 1.8130001
0.89671427 0.1881993 1.8040001
0.89987731 0.1881993 1.8040001
0.90304029 0.1881993 1.8040001
-0.95036715 0.18637671 1.7570001
-0.94728655 0.18637671 1.7570001
-0.94420594 0.18637671 1.7570001
-0.94112533 0.18637671 1.7570001
-0.9332397 0.18542202 1.748
-0.93017489 0.18542202 1.748
-0.93188351 0.18637671 1.7570001
-0.94451451 0.19337776 1.8230001
-0.94648176 0.19443853 1.8330001
-0.94326788 0.19443853 1.8330001
-0.94518256 0.1954993 1.8430001
-0.94195116 0.1954993 1.8430001
-0.93871975 0.1954993 1.8430001
-0.93548834 0.1954993 1.8430001
-0.93731534 0.19656006 1.853
-0.93406641 0.19656006 1.853
-0.93081748 0.19656006 1.853
-0.93257433 0.19762082 1.863
-0.92930788 0.19762082 1.863
-0.92604142 0.19762082 1.863
-0.92277497 0.19762082 1.863
-0.91950846 0.19762082 1.863
-0.9211601 0.19868159 1.8730001
-0.91787612 0.19868159 1.8730001
-0.91459215 0.19868159 1.8730001
-0.91617364 0.19974236 1.8830001
-0.91287214 0.19974236 1.8830001
-0.91488409 0.20090921 1.8940001
-0.91156328 0.20090921 1.8940001
-0.91303784 0.20196997 1.904
-0.90969944 0.20196997 1.904
-0.9063611 0.20196997 1.904
-0.90302277 0.20196997 1.904
-0.89968443 0.20196997 1.904
-0.90152454 0.20313682 1.9150001
-0.89816689 0.20313682 1.9150001
-0.89480931 0.20313682 1.9150001
-0.89657223 0.20430365 1.9260001
-0.89783293 0.20536442 1.9360001
-0.89443845 0.20536442 1.9360001
-0.89610672 0.20653127 1.9470001
-0.89819497 0.20780419 1.9590001
-0.16394982 0.17555688 1.6550001
-0.16104805 0.17555688 1.6550001
-0.15814628 0.17555688 1.6550001
-0.15524451 0.17555688 1.6550001
-0.15234275 0.17555688 1.6550001
-0.14944099 0.17555688 1.6550001
-0.14583087 0.17470826 1.6470001
-0.13367765 0.16675252 1.572
-0.13092139 0.16675252 1.572
-0.12816516 0.16675252 1.572
-0.12540892 0.16675252 1.572
-0.12265268 0.16675252 1.572
-0.11989644 0.16675252 1.572
-0.1171402 0.16675252 1.572
-0.11438396 0.16675252 1.572
-0.11212479 0.16749506 1.5790001
-0.10935628 0.16749506 1.5790001
-0.10658776 0.16749506 1.5790001
-0.1042795 0.1682376 1.5860001
-0.10149872 0.1682376 1.5860001
-0.099215873 0.1690862 1.5940001
-0.096421063 0.1690862 1.5940001
-0.093626246 0.1690862 1.5940001
-0.090375565 0.1682376 1.5860001
-0.087594777 0.1682376 1.5860001
-0.085241809 0.1690862 1.5940001
-0.082446992 0.1690862 1.5940001
-0.079652183 0.1690862 1.5940001
-0.076857366 0.1690862 1.5940001
-0.074062556 0.1690862 1.5940001
-0.071267739 0.1690862 1.5940001
-0.077880435 0.19231699 1.8130001
0.83690721 0.21141079 1.9930001
0.84040159 0.21141079 1.9930001
0.84389597 0.21141079 1.9930001
0.8422882 0.21013787 1.9810001
0.84576154 0.21013787 1.9810001
0.84451932 0.20897104 1.9700001
0.84797335 0.20897104 1.9700001
0.85142744 0.20897104 1.9700001
0.85010803 0.20780419 1.9590001
0.8535428 0.20780419 1.9590001
0.85172814 0.20653127 1.9470001
0.85514188 0.20653127 1.9470001
0.85855561 0.20653127 1.9470001
0.85709947 0.20536442 1.9360001
0.8604939 0.20536442 1.9360001
0.85942614 0.20430365 1.9260001
0.85787529 0.20313682 1.9150001
0.86123294 0.20313682 1.9150001
0.85962427 0.20196997 1.904
0.8629626 0.20196997 1.904
0.86175108 0.20090921 1.8940001
0.86507189 0.20090921 1.8940001
0.86839271 0.20090921 1.8940001
0.86665076 0.19974236 1.8830001
0.86995226 0.19974236 1.8830001
0.86861622 0.19868159 1.8730001
0.8719002 0.19868159 1.8730001
0.87518424 0.19868159 1.8730001
0.87846822 0.19868159 1.8730001
0.88175219 0.19868159 1.8730001
0.88503617 0.19868159 1.8730001
0.88832021 0.19868159 1.8730001
0.88684386 0.19762082 1.863
0.89011037 0.19762082 1.863
0.88858145 0.19656006 1.853
0.88701749 0.1954993 1.8430001
0.88541842 0.19443853 1.8330001
0.8886323 0.19443853 1.8330001
0.88698065 0.19337776 1.8230001
0.89017695 0.19337776 1.8230001
0.89337331 0.19337776 1.8230001
0.89656961 0.19337776 1.8230001
0.89483035 0.19231699 1.8130001
0.89800912 0.19231699 1.8130001
0.89671427 0.19136231 1.8040001
0.89987731 0.19136231 1.8040001
0.90304029 0.19136231 1.8040001
0.90118003 0.19030154 1.794
-0.96268958 0.18945731 1.7570001
-0.95960897 0.18945731 1.7570001
-0.95652837 0.18945731 1.7570001
-0.95344776 0.18945731 1.7570001
-0.945499 0.18848684 1.748
-0.94243419 0.18848684 1.748
-0.93936938 0.18848684 1.748
-0.93630457 0.18848684 1.748
-0.9332397 0.18848684 1.748
-0.93017489 0.18848684 1.748
-0.93188351 0.18945731 1.7570001
-0.94771087 0.19657409 1.8230001
-0.94451451 0.19657409 1.8230001
-0.94648176 0.19765238 1.8330001
-0.94326788 0.19765238 1.8330001
-0.94005406 0.19765238 1.8330001
-0.94195116 0.19873069 1.8430001
-0.93871975 0.19873069 1.8430001
-0.93548834 0.19873069 1.8430001
-0.932257 0.19873069 1.8430001
-0.93406641 0.19980898 1.853
-0.93081748 0.19980898 1.853
-0.93257433 0.20088729 1.863
-0.92930788 0.20088729 1.863
-0.92604142 0.20088729 1.863
-0.92277497 0.20088729 1.863
-0.91950846 0.20088729 1.863
-0.916242 0.20088729 1.863
-0.91787612 0.20196559 1.8730001
-0.91459215 0.20196559 1.8730001
-0.91617364 0.20304389 1.8830001
-0.91287214 0.20304389 1.8830001
-0.91488409 0.20423003 1.8940001
-0.91156328 0.20423003 1.8940001
-0.91303784 0.20530832 1.904
-0.90969944 0.20530832 1.904
-0.9063611 0.20530832 1.904
-0.90302277 0.20530832 1.904
-0.89968443 0.20530832 1.904
-0.90152454 0.20649445 1.9150001
-0.89816689 0.20649445 1.9150001
-0.89480931 0.20649445 1.9150001
-0.89657223 0.20768058 1.9260001
-0.89783293 0.20875888 1.9360001
-0.89952046 0.20994501 1.9470001
-0.89610672 0.20994501 1.9470001
-0.89819497 0.21123897 1.9590001
-0.89476019 0.21123897 1.9590001
-0.89132541 0.21123897 1.9590001
-0.88245177 0.20994501 1.9470001
-0.87903804 0.20994501 1.9470001
-0.87067729 0.20875888 1.9360001
-0.16104805 0.17845865 1.6550001
-0.15814628 0.17845865 1.6550001
-0.15449409 0.177596 1.6470001
-0.15160635 0.177596 1.6470001
-0.14871861 0.177596 1.6470001
-0.14583087 0.177596 1.6470001
-0.13367765 0.16950876 1.572
-0.13092139 0.16950876 1.572
-0.12816516 0.16950876 1.572
-0.12540892 0.16950876 1.572
-0.12265268 0.16950876 1.572
-0.11989644 0.16950876 1.572
-0.1171402 0.16950876 1.572
-0.11438396 0.16950876 1.572
-0.11262186 0.17101838 1.5860001
-0.10984107 0.17101838 1.5860001
-0.10706028 0.17101838 1.5860001
-0.1042795 0.17101838 1.5860001
-0.10149872 0.17101838 1.5860001
-0.099215873 0.17188102 1.5940001
-0.096421063 0.17188102 1.5940001
-0.093626246 0.17188102 1.5940001
-0.090831436 0.17188102 1.5940001
-0.088036619 0.17188102 1.5940001
-0.085616142 0.17263582 1.6010001
-0.082446992 0.17188102 1.5940001
-0.079652183 0.17188102 1.5940001
-0.076134115 0.17026357 1.5790001
-0.073365606 0.17026357 1.5790001
-0.07059709 0.17026357 1.5790001
0.83690721 0.21490519 1.9930001
0.84040159 0.21490519 1.9930001
0.84389597 0.21490519 1.9930001
0.8422882 0.21361123 1.9810001
0.84576154 0.21361123 1.9810001
0.84451932 0.2124251 1.9700001
0.84797335 0.2124251 1.9700001
0.84667325 0.21123897 1.9590001
0.85010803 0.21123897 1.9590001
0.8535428 0.21123897 1.9590001
0.85172814 0.20994501 1.9470001
0.85514188 0.20994501 1.9470001
0.85855561 0.20994501 1.9470001
0.86196935 0.20994501 1.9470001
0.85604924 0.20768058 1.9260001
0.85942614 0.20768058 1.9260001
0.85787529 0.20649445 1.9150001
0.85628593 0.20530832 1.904
0.85962427 0.20530832 1.904
0.85843027 0.20423003 1.8940001
0.86175108 0.20423003 1.8940001
0.86507189 0.20423003 1.8940001
0.8633492 0.20304389 1.8830001
0.86665076 0.20304389 1.8830001
0.86995226 0.20304389 1.8830001
0.86861622 0.20196559 1.8730001
0.8719002 0.20196559 1.8730001
0.87518424 0.20196559 1.8730001
0.87846822 0.20196559 1.8730001
0.88175219 0.20196559 1.8730001
0.88031095 0.20088729 1.863
0.88357741 0.20088729 1.863
0.88684386 0.20088729 1.863
0.89011037 0.20088729 1.863
0.88858145 0.19980898 1.853
0.88701749 0.19873069 1.8430001
0.89024884 0.19873069 1.8430001
0.8886323 0.19765238 1.8330001
0.89184612 0.19765238 1.8330001
0.89017695 0.19657409 1.8230001
0.89337331 0.19657409 1.8230001
0.89656961 0.19657409 1.8230001
0.89483035 0.19549578 1.8130001
0.89800912 0.19549578 1.8130001
0.89671427 0.19452532 1.8040001
0.89987731 0.19452532 1.8040001
0.90304029 0.19452532 1.8040001
0.90118003 0.19344702 1.794
-0.96082318 0.19155167 1.748
-0.95775831 0.19155167 1.748
-0.9546935 0.19155167 1.748
-0.95162868 0.19155167 1.748
-0.94856387 0.19155167 1.748
-0.945499 0.19155167 1.748
-0.94243419 0.19155167 1.748
-0.93936938 0.19155167 1.748
-0.93630457 0.19155167 1.748
-0.9332397 0.19155167 1.748
-0.93017489 0.19155167 1.748
-0.92711008 0.19155167 1.748
-0.94569099 0.19867459 1.8130001
-0.94771087 0.19977042 1.8230001
-0.94451451 0.19977042 1.8230001
-0.94131821 0.19977042 1.8230001
-0.93812186 0.19977042 1.8230001
-0.94005406 0.20086625 1.8330001
-0.93684018 0.20086625 1.8330001
-0.93871975 0.20196208 1.8430001
-0.93548834 0.20196208 1.8430001
-0.932257 0.20196208 1.8430001
-0.93406641 0.20305791 1.853
-0.93081748 0.20305791 1.853
-0.93257433 0.20415375 1.863
-0.92930788 0.20415375 1.863
-0.92604142 0.20415375 1.863
-0.92277497 0.20415375 1.863
-0.91950846 0.20415375 1.863
-0.916242 0.20415375 1.863
-0.91297555 0.20415375 1.863
-0.91459215 0.20524958 1.8730001
-0.91617364 0.20634541 1.8830001
-0.91287214 0.20634541 1.8830001
-0.91488409 0.20755084 1.8940001
-0.91156328 0.20755084 1.8940001
-0.90824246 0.20755084 1.8940001
-0.90969944 0.20864667 1.904
-0.9063611 0.20864667 1.904
-0.90302277 0.20864667 1.904
-0.89968443 0.20864667 1.904
-0.89634609 0.20864667 1.904
-0.89816689 0.20985208 1.9150001
-0.89480931 0.20985208 1.9150001
-0.89657223 0.2110575 1.9260001
-0.89319533 0.2110575 1.9260001
-0.89443845 0.21215333 1.9360001
-0.89104402 0.21215333 1.9360001
-0.89269298 0.21335874 1.9470001
-0.88927925 0.21335874 1.9470001
-0.88586551 0.21335874 1.9470001
-0.88245177 0.21335874 1.9470001
-0.87407172 0.21215333 1.9360001
-0.16104805 0.18136041 1.6550001
-0.15814628 0.18136041 1.6550001
-0.15449409 0.18048374 1.6470001
-0.15160635 0.18048374 1.6470001
-0.14871861 0.18048374 1.6470001
-0.14094695 0.17796333 1.6240001
-0.13809955 0.17796333 1.6240001
-0.13150439 0.17303208 1.5790001
-0.12873587 0.17303208 1.5790001
-0.12540892 0.17226499 1.572
-0.12265268 0.17226499 1.572
-0.12043033 0.17303208 1.5790001
-0.11766182 0.17303208 1.5790001
-0.1148933 0.17303208 1.5790001
-0.11262186 0.17379917 1.5860001
-0.10984107 0.17379917 1.5860001
-0.10706028 0.17379917 1.5860001
-0.1042795 0.17379917 1.5860001
-0.10201069 0.17467584 1.5940001
-0.099215873 0.17467584 1.5940001
-0.096421063 0.17467584 1.5940001
-0.093626246 0.17467584 1.5940001
-0.090375565 0.17379917 1.5860001
-0.087594777 0.17379917 1.5860001
-0.085241809 0.17467584 1.5940001
-0.082446992 0.17467584 1.5940001
-0.078902632 0.17303208 1.5790001
-0.076134115 0.17303208 1.5790001
-0.073365606 0.17303208 1.5790001
-0.07059709 0.17303208 1.5790001
0.83690721 0.21839958 1.9930001
0.84040159 0.21839958 1.9930001
0.84389597 0.21839958 1.9930001
0.8422882 0.21708459 1.9810001
0.84576154 0.21708459 1.9810001
0.84451932 0.21587917 1.9700001
0.84797335 0.21587917 1.9700001
0.84667325 0.21467374 1.9590001
0.85010803 0.21467374 1.9590001
0.8483144 0.21335874 1.9470001
0.85172814 0.21335874 1.9470001
0.85514188 0.21335874 1.9470001
0.85855561 0.21335874 1.9470001
0.85709947 0.21215333 1.9360001
0.85604924 0.2110575 1.9260001
0.85942614 0.2110575 1.9260001
0.85787529 0.20985208 1.9150001
0.85628593 0.20864667 1.904
0.85962427 0.20864667 1.904
0.85843027 0.20755084 1.8940001
0.86175108 0.20755084 1.8940001
0.86507189 0.20755084 1.8940001
0.8633492 0.20634541 1.8830001
0.86665076 0.20634541 1.8830001
0.86995226 0.20634541 1.8830001
0.86861622 0.20524958 1.8730001
0.8719002 0.20524958 1.8730001
0.87518424 0.20524958 1.8730001
0.87846822 0.20524958 1.8730001
0.88175219 0.20524958 1.8730001
0.88031095 0.20415375 1.863
0.88357741 0.20415375 1.863
0.88684386 0.20415375 1.863
0.89011037 0.20415375 1.863
0.88858145 0.20305791 1.853
0.88701749 0.20196208 1.8430001
0.89024884 0.20196208 1.8430001
0.8886323 0.20086625 1.8330001
0.89184612 0.20086625 1.8330001
0.89017695 0.19977042 1.8230001
0.89337331 0.19977042 1.8230001
0.89656961 0.19977042 1.8230001
0.89483035 0.19867459 1.8130001
0.89800912 0.19867459 1.8130001
0.89671427 0.19768833 1.8040001
0.89987731 0.19768833 1.8040001
0.89803451 0.19659249 1.794
0.90118003 0.19659249 1.794
0.89978874 0.19560625 1.7850001
0.90291846 0.19560625 1.7850001
-0.95147878 0.19272377 1.7310001
-0.94844377 0.19272377 1.7310001
-0.94977802 0.19361447 1.7390001
-0.946729 0.19361447 1.7390001
-0.94367993 0.19361447 1.7390001
-0.94063091 0.19361447 1.7390001
-0.93758184 0.19361447 1.7390001
-0.93453282 0.19361447 1.7390001
-0.93148375 0.19361447 1.7390001
-0.94569099 0.20185338 1.8130001
-0.94771087 0.20296673 1.8230001
-0.94451451 0.20296673 1.8230001
-0.94131821 0.20296673 1.8230001
-0.93812186 0.20296673 1.8230001
-0.94005406 0.2040801 1.8330001
-0.93684018 0.2040801 1.8330001
-0.93362635 0.2040801 1.8330001
-0.93041247 0.2040801 1.8330001
-0.932257 0.20519347 1.8430001
-0.93406641 0.20630684 1.853
-0.93081748 0.20630684 1.853
-0.92756855 0.20630684 1.853
-0.92930788 0.20742022 1.863
-0.92604142 0.20742022 1.863
-0.92277497 0.20742022 1.863
-0.91950846 0.20742022 1.863
-0.916242 0.20742022 1.863
-0.91297555 0.20742022 1.863
-0.9097091 0.20742022 1.863
-0.91130817 0.20853357 1.8730001
-0.91287214 0.20964694 1.8830001
-0.90957057 0.20964694 1.8830001
-0.91156328 0.21087165 1.8940001
-0.90824246 0.21087165 1.8940001
-0.90492165 0.21087165 1.8940001
-0.9063611 0.21198501 1.904
-0.90302277 0.21198501 1.904
-0.89968443 0.21198501 1.904
-0.89634609 0.21198501 1.904
-0.89816689 0.21320972 1.9150001
-0.89480931 0.21320972 1.9150001
-0.89657223 0.21443442 1.9260001
-0.89319533 0.21443442 1.9260001
-0.88981843 0.21443442 1.9260001
-0.88644147 0.21443442 1.9260001
-0.88764954 0.21554779 1.9360001
-0.88927925 0.21677248 1.9470001
-0.88086063 0.21554779 1.9360001
-0.8774662 0.21554779 1.9360001
-0.87407172 0.21554779 1.9360001
-0.88396841 0.22055793 1.9810001
-0.88049507 0.22055793 1.9810001
-0.87702173 0.22055793 1.9810001
-0.16104805 0.18426219 1.6550001
-0.15814628 0.18426219 1.6550001
-0.15449409 0.18337148 1.6470001
-0.15086995 0.1824808 1.6390001
-0.14799623 0.1824808 1.6390001
-0.14379437 0.18081075 1.6240001
-0.14094695 0.18081075 1.6240001
-0.13809955 0.18081075 1.6240001
-0.13275363 0.17747064 1.5940001
-0.12995882 0.17747064 1.5940001
-0.12596735 0.17580059 1.5790001
-0.12319884 0.17580059 1.5790001
-0.12096422 0.17657995 1.5860001
-0.11818343 0.17657995 1.5860001
-0.11540265 0.17657995 1.5860001
-0.11318994 0.17747064 1.5940001
-0.10984107 0.17657995 1.5860001
-0.10706028 0.17657995 1.5860001
-0.1042795 0.17657995 1.5860001
-0.10201069 0.17747064 1.5940001
-0.099215873 0.17747064 1.5940001
-0.096421063 0.17747064 1.5940001
-0.093626246 0.17747064 1.5940001
-0.090375565 0.17657995 1.5860001
-0.087594777 0.17657995 1.5860001
-0.085241809 0.17747064 1.5940001
-0.082446992 0.17747064 1.5940001
-0.078902632 0.17580059 1.5790001
-0.076134115 0.17580059 1.5790001
-0.073365606 0.17580059 1.5790001
-0.07059709 0.17580059 1.5790001
0.83690721 0.22189398 1.9930001
0.84040159 0.22189398 1.9930001
0.84389597 0.22189398 1.9930001
0.8422882 0.22055793 1.9810001
0.84106523 0.21933323 1.9700001
0.84451932 0.21933323 1.9700001
0.84797335 0.21933323 1.9700001
0.84667325 0.21810853 1.9590001
0.85010803 0.21810853 1.9590001
0.8483144 0.21677248 1.9470001
0.85172814 0.21677248 1.9470001
0.85514188 0.21677248 1.9470001
0.85855561 0.21677248 1.9470001
0.85709947 0.21554779 1.9360001
0.85604924 0.21443442 1.9260001
0.85942614 0.21443442 1.9260001
0.85787529 0.21320972 1.9150001
0.86123294 0.21320972 1.9150001
0.85962427 0.21198501 1.904
0.8629626 0.21198501 1.904
0.86630094 0.21198501 1.904
0.86507189 0.21087165 1.8940001
0.86839271 0.21087165 1.8940001
0.86665076 0.20964694 1.8830001
0.86995226 0.20964694 1.8830001
0.86861622 0.20853357 1.8730001
0.8719002 0.20853357 1.8730001
0.87518424 0.20853357 1.8730001
0.87846822 0.20853357 1.8730001
0.88175219 0.20853357 1.8730001
0.88031095 0.20742022 1.863
0.88357741 0.20742022 1.863
0.88684386 0.20742022 1.863
0.89011037 0.20742022 1.863
0.88858145 0.20630684 1.853
0.88701749 0.20519347 1.8430001
0.89024884 0.20519347 1.8430001
0.8886323 0.2040801 1.8330001
0.89184612 0.2040801 1.8330001
0.89017695 0.20296673 1.8230001
0.89337331 0.20296673 1.8230001
0.89656961 0.20296673 1.8230001
0.89483035 0.20185338 1.8130001
0.89800912 0.20185338 1.8130001
0.89671427 0.20085135 1.8040001
0.89987731 0.20085135 1.8040001
0.89803451 0.19973798 1.794
0.90118003 0.19973798 1.794
0.89978874 0.19873595 1.7850001
0.90291846 0.19873595 1.7850001
-0.94653171 0.19474098 1.7220001
-0.9435125 0.19474098 1.7220001
-0.9454087 0.19575879 1.7310001
-0.94237369 0.19575879 1.7310001
-0.93933868 0.19575879 1.7310001
-0.93630368 0.19575879 1.7310001
-0.93326867 0.19575879 1.7310001
-0.93453282 0.19666351 1.7390001
-0.93148375 0.19666351 1.7390001
-0.92843473 0.19666351 1.7390001
-0.94099647 0.20401436 1.8040001
-0.94251221 0.20503217 1.8130001
-0.94451451 0.20616306 1.8230001
-0.94131821 0.20616306 1.8230001
-0.93812186 0.20616306 1.8230001
-0.93492556 0.20616306 1.8230001
-0.9317292 0.20616306 1.8230001
-0.93362635 0.20729397 1.8330001
-0.93041247 0.20729397 1.8330001
-0.92719859 0.20729397 1.8330001
-0.92902559 0.20842487 1.8430001
-0.92579418 0.20842487 1.8430001
-0.92756855 0.20955577 1.853
-0.92431962 0.20955577 1.853
-0.92604142 0.21068667 1.863
-0.92277497 0.21068667 1.863
-0.91950846 0.21068667 1.863
-0.916242 0.21068667 1.863
-0.91297555 0.21068667 1.863
-0.9097091 0.21068667 1.863
-0.91130817 0.21181756 1.8730001
-0.90802413 0.21181756 1.8730001
-0.90957057 0.21294847 1.8830001
-0.90626907 0.21294847 1.8830001
-0.90824246 0.21419246 1.8940001
-0.90492165 0.21419246 1.8940001
-0.90160084 0.21419246 1.8940001
-0.90302277 0.21532336 1.904
-0.89968443 0.21532336 1.904
-0.89634609 0.21532336 1.904
-0.89816689 0.21656735 1.9150001
-0.89480931 0.21656735 1.9150001
-0.89657223 0.21781133 1.9260001
-0.89319533 0.21781133 1.9260001
-0.88981843 0.21781133 1.9260001
-0.88644147 0.21781133 1.9260001
-0.88764954 0.21894224 1.9360001
-0.88425511 0.21894224 1.9360001
-0.88086063 0.21894224 1.9360001
-0.8774662 0.21894224 1.9360001
-0.87407172 0.21894224 1.9360001
-0.8756243 0.22018623 1.9470001
-0.882514 0.22278731 1.9700001
-0.88396841 0.22403128 1.9810001
-0.88049507 0.22403128 1.9810001
-0.87702173 0.22403128 1.9810001
-0.87354833 0.22403128 1.9810001
-0.86524367 0.22278731 1.9700001
-0.86178964 0.22278731 1.9700001
-0.54888624 0.20288345 1.794
-0.16425928 0.19089592 1.6880001
-0.15814628 0.18716395 1.6550001
-0.15449409 0.18625923 1.6470001
-0.15086995 0.18535452 1.6390001
-0.14799623 0.18535452 1.6390001
-0.14379437 0.18365815 1.6240001
-0.14094695 0.18365815 1.6240001
-0.13809955 0.18365815 1.6240001
-0.13525213 0.18365815 1.6240001
-0.13240471 0.18365815 1.6240001
-0.12716401 0.18026546 1.5940001
-0.12436919 0.18026546 1.5940001
-0.12157438 0.18026546 1.5940001
-0.11877956 0.18026546 1.5940001
-0.11598475 0.18026546 1.5940001
-0.11318994 0.18026546 1.5940001
-0.11039513 0.18026546 1.5940001
-0.10706028 0.17936073 1.5860001
-0.1042795 0.17936073 1.5860001
-0.10201069 0.18026546 1.5940001
-0.099215873 0.18026546 1.5940001
-0.096421063 0.18026546 1.5940001
-0.093156353 0.17936073 1.5860001
-0.090375565 0.17936073 1.5860001
-0.087594777 0.17936073 1.5860001
-0.08481399 0.17936073 1.5860001
-0.082446992 0.18026546 1.5940001
-0.079652183 0.18026546 1.5940001
-0.076471634 0.17936073 1.5860001
-0.073690847 0.17936073 1.5860001
-0.070910059 0.17936073 1.5860001
0.83690721 0.22538836 1.9930001
0.83534145 0.22403128 1.9810001
0.8388148 0.22403128 1.9810001
0.83761114 0.22278731 1.9700001
0.84106523 0.22278731 1.9700001
0.84451932 0.22278731 1.9700001
0.84323847 0.22154331 1.9590001
0.84667325 0.22154331 1.9590001
0.85010803 0.22154331 1.9590001
0.8483144 0.22018623 1.9470001
0.85172814 0.22018623 1.9470001
0.85514188 0.22018623 1.9470001
0.85855561 0.22018623 1.9470001
0.86196935 0.22018623 1.9470001
0.8604939 0.21894224 1.9360001
0.85942614 0.21781133 1.9260001
0.85787529 0.21656735 1.9150001
0.86123294 0.21656735 1.9150001
0.85962427 0.21532336 1.904
0.8629626 0.21532336 1.904
0.86630094 0.21532336 1.904
0.86507189 0.21419246 1.8940001
0.86839271 0.21419246 1.8940001
0.86665076 0.21294847 1.8830001
0.86995226 0.21294847 1.8830001
0.86861622 0.21181756 1.8730001
0.8719002 0.21181756 1.8730001
0.87518424 0.21181756 1.8730001
0.87846822 0.21181756 1.8730001
0.8770445 0.21068667 1.863
0.88031095 0.21068667 1.863
0.88357741 0.21068667 1.863
0.88684386 0.21068667 1.863
0.89011037 0.21068667 1.863
0.88858145 0.20955577 1.853
0.88701749 0.20842487 1.8430001
0.89024884 0.20842487 1.8430001
0.8886323 0.20729397 1.8330001
0.89184612 0.20729397 1.8330001
0.89017695 0.20616306 1.8230001
0.89337331 0.20616306 1.8230001
0.89656961 0.20616306 1.8230001
0.89483035 0.20503217 1.8130001
0.89800912 0.20503217 1.8130001
0.89671427 0.20401436 1.8040001
0.89987731 0.20401436 1.8040001
0.89803451 0.20288345 1.794
0.90118003 0.20288345 1.794
0.89978874 0.20186564 1.7850001
0.90291846 0.20186564 1.7850001
-0.94158471 0.19672664 1.7130001
-0.93858123 0.19672664 1.7130001
-0.94049323 0.19776022 1.7220001
-0.93747401 0.19776022 1.7220001
-0.9344548 0.19776022 1.7220001
-0.93143553 0.19776022 1.7220001
-0.93326867 0.19879381 1.7310001
-0.9389258 0.20602894 1.794
-0.94099647 0.20717737 1.8040001
-0.94251221 0.20821096 1.8130001
-0.93933344 0.20821096 1.8130001
-0.94131821 0.20935939 1.8230001
-0.93812186 0.20935939 1.8230001
-0.93492556 0.20935939 1.8230001
-0.9317292 0.20935939 1.8230001
-0.9285329 0.20935939 1.8230001
-0.92533654 0.20935939 1.8230001
-0.92214024 0.20935939 1.8230001
-0.92398477 0.21050783 1.8330001
-0.92579418 0.21165626 1.8430001
-0.92756855 0.21280469 1.853
-0.92431962 0.21280469 1.853
-0.92107069 0.21280469 1.853
-0.91782176 0.21280469 1.853
-0.91950846 0.21395312 1.863
-0.916242 0.21395312 1.863
-0.91297555 0.21395312 1.863
-0.9097091 0.21395312 1.863
-0.90644264 0.21395312 1.863
-0.90802413 0.21510155 1.8730001
-0.90957057 0.21625 1.8830001
-0.90626907 0.21625 1.8830001
-0.90824246 0.21751328 1.8940001
-0.90492165 0.21751328 1.8940001
-0.90160084 0.21751328 1.8940001
-0.90302277 0.21866171 1.904
-0.89968443 0.21866171 1.904
-0.89634609 0.21866171 1.904
-0.89816689 0.21992499 1.9150001
-0.89480931 0.21992499 1.9150001
-0.89657223 0.22118826 1.9260001
-0.89319533 0.22118826 1.9260001
-0.88981843 0.22118826 1.9260001
-0.88644147 0.22118826 1.9260001
-0.88306457 0.22118826 1.9260001
-0.88425511 0.22233669 1.9360001
-0.88086063 0.22233669 1.9360001
-0.8774662 0.22233669 1.9360001
-0.87903804 0.22359997 1.9470001
-0.8756243 0.22359997 1.9470001
-0.882514 0.22624137 1.9700001
-0.87905997 0.22624137 1.9700001
-0.87560588 0.22624137 1.9700001
-0.87702173 0.22750464 1.9810001
-0.87354833 0.22750464 1.9810001
-0.86524367 0.22624137 1.9700001
-0.86178964 0.22624137 1.9700001
-0.85833555 0.22624137 1.9700001
-0.34896156 0.20499535 1.7850001
-0.33644274 0.20499535 1.7850001
-0.17360631 0.19776022 1.7220001
-0.16969548 0.19672664 1.7130001
-0.16425928 0.19385554 1.6880001
-0.15891074 0.19098446 1.6630001
-0.15524451 0.19006571 1.6550001
-0.15160635 0.18914697 1.6470001
-0.14799623 0.18822822 1.6390001
-0.14450271 0.18742432 1.6320001
-0.14094695 0.18650557 1.6240001
-0.13809955 0.18650557 1.6240001
-0.13525213 0.18650557 1.6240001
-0.13240471 0.18650557 1.6240001
-0.12716401 0.18306027 1.5940001
-0.12436919 0.18306027 1.5940001
-0.12157438 0.18306027 1.5940001
-0.11877956 0.18306027 1.5940001
-0.11598475 0.18306027 1.5940001
-0.11318994 0.18306027 1.5940001
-0.11039513 0.18306027 1.5940001
-0.10706028 0.18214153 1.5860001
-0.1042795 0.18214153 1.5860001
-0.10201069 0.18306027 1.5940001
-0.099215873 0.18306027 1.5940001
-0.096421063 0.18306027 1.5940001
-0.093156353 0.18214153 1.5860001
-0.090375565 0.18214153 1.5860001
-0.087594777 0.18214153 1.5860001
-0.08481399 0.18214153 1.5860001
-0.082446992 0.18306027 1.5940001
-0.079652183 0.18306027 1.5940001
-0.076857366 0.18306027 1.5940001
-0.074062556 0.18306027 1.5940001
-0.071267739 0.18306027 1.5940001
0.83690721 0.22888276 1.9930001
0.83534145 0.22750464 1.9810001
0.8388148 0.22750464 1.9810001
0.83761114 0.22624137 1.9700001
0.84106523 0.22624137 1.9700001
0.8398037 0.22497809 1.9590001
0.84323847 0.22497809 1.9590001
0.84667325 0.22497809 1.9590001
0.85010803 0.22497809 1.9590001
0.8483144 0.22359997 1.9470001
0.85172814 0.22359997 1.9470001
0.85514188 0.22359997 1.9470001
0.85855561 0.22359997 1.9470001
0.86196935 0.22359997 1.9470001
0.8604939 0.22233669 1.9360001
0.85942614 0.22118826 1.9260001
0.85787529 0.21992499 1.9150001
0.86123294 0.21992499 1.9150001
0.85962427 0.21866171 1.904
0.8629626 0.21866171 1.904
0.86630094 0.21866171 1.904
0.86507189 0.21751328 1.8940001
0.86839271 0.21751328 1.8940001
0.87171352 0.21751328 1.8940001
0.86995226 0.21625 1.8830001
0.86861622 0.21510155 1.8730001
0.8719002 0.21510155 1.8730001
0.87518424 0.21510155 1.8730001
0.87377805 0.21395312 1.863
0.8770445 0.21395312 1.863
0.88031095 0.21395312 1.863
0.88357741 0.21395312 1.863
0.88684386 0.21395312 1.863
0.89011037 0.21395312 1.863
0.88858145 0.21280469 1.853
0.88701749 0.21165626 1.8430001
0.89024884 0.21165626 1.8430001
0.8886323 0.21050783 1.8330001
0.89184612 0.21050783 1.8330001
0.89017695 0.20935939 1.8230001
0.89337331 0.20935939 1.8230001
0.89165151 0.20821096 1.8130001
0.89483035 0.20821096 1.8130001
0.89355129 0.20717737 1.8040001
0.89671427 0.20717737 1.8040001
0.89488906 0.20602894 1.794
0.89803451 0.20602894 1.794
0.90118003 0.20602894 1.794
0.89978874 0.20499535 1.7850001
0.90291846 0.20499535 1.7850001
-0.93718737 0.19879732 1.705
-0.9341979 0.19879732 1.705
-0.93557781 0.19973008 1.7130001
-0.93257433 0.19973008 1.7130001
-0.92957085 0.19973008 1.7130001
-0.93143553 0.20077945 1.7220001
-0.92841631 0.20077945 1.7220001
-0.9389258 0.20917442 1.794
-0.94099647 0.21034038 1.8040001
-0.94251221 0.21138975 1.8130001
-0.93933344 0.21138975 1.8130001
-0.94131821 0.21255572 1.8230001
-0.93812186 0.21255572 1.8230001
-0.93492556 0.21255572 1.8230001
-0.9317292 0.21255572 1.8230001
-0.9285329 0.21255572 1.8230001
-0.92533654 0.21255572 1.8230001
-0.92214024 0.21255572 1.8230001
-0.92398477 0.21372169 1.8330001
-0.92077088 0.21372169 1.8330001
-0.92256278 0.21488765 1.8430001
-0.92431962 0.21605362 1.853
-0.92107069 0.21605362 1.853
-0.91782176 0.21605362 1.853
-0.91457283 0.21605362 1.853
-0.916242 0.21721959 1.863
-0.91297555 0.21721959 1.863
-0.9097091 0.21721959 1.863
-0.90644264 0.21721959 1.863
-0.90802413 0.21838556 1.8730001
-0.90957057 0.21955152 1.8830001
-0.90626907 0.21955152 1.8830001
-0.90296751 0.21955152 1.8830001
-0.89966601 0.21955152 1.8830001
-0.90160084 0.22083409 1.8940001
-0.89828002 0.22083409 1.8940001
-0.89968443 0.22200005 1.904
-0.89634609 0.22200005 1.904
-0.89300776 0.22200005 1.904
-0.88966936 0.22200005 1.904
-0.89145166 0.22328262 1.9150001
-0.88809401 0.22328262 1.9150001
-0.88981843 0.22456518 1.9260001
-0.88644147 0.22456518 1.9260001
-0.88306457 0.22456518 1.9260001
-0.88425511 0.22573115 1.9360001
-0.88086063 0.22573115 1.9360001
-0.88245177 0.22701371 1.9470001
-0.87903804 0.22701371 1.9470001
-0.8756243 0.22701371 1.9470001
-0.87758631 0.22841287 1.9590001
-0.87415153 0.22841287 1.9590001
-0.87560588 0.22969542 1.9700001
-0.87702173 0.230978 1.9810001
-0.87354833 0.230978 1.9810001
-0.87007499 0.230978 1.9810001
-0.86178964 0.22969542 1.9700001
-0.85833555 0.22969542 1.9700001
-0.42094466 0.20812505 1.7850001
-0.41781494 0.20812505 1.7850001
-0.41468525 0.20812505 1.7850001
-0.41155556 0.20812505 1.7850001
-0.35209125 0.20812505 1.7850001
-0.16890298 0.19879732 1.705
-0.16425928 0.19681518 1.6880001
-0.15891074 0.19390026 1.6630001
-0.15524451 0.19296749 1.6550001
-0.15160635 0.19203471 1.6470001
-0.14871861 0.19203471 1.6470001
-0.14512253 0.19110194 1.6390001
-0.14164127 0.19028576 1.6320001
-0.13809955 0.18935299 1.6240001
-0.13525213 0.18935299 1.6240001
-0.13240471 0.18935299 1.6240001
-0.12716401 0.18585509 1.5940001
-0.12436919 0.18585509 1.5940001
-0.12210827 0.18667126 1.6010001
-0.11930119 0.18667126 1.6010001
-0.1164941 0.18667126 1.6010001
-0.11368701 0.18667126 1.6010001
-0.11039513 0.18585509 1.5940001
-0.10760031 0.18585509 1.5940001
-0.1048055 0.18585509 1.5940001
-0.10201069 0.18585509 1.5940001
-0.099215873 0.18585509 1.5940001
-0.096421063 0.18585509 1.5940001
-0.093156353 0.18492231 1.5860001
-0.090375565 0.18492231 1.5860001
-0.087594777 0.18492231 1.5860001
-0.08481399 0.18492231 1.5860001
-0.082446992 0.18585509 1.5940001
-0.079652183 0.18585509 1.5940001
-0.076857366 0.18585509 1.5940001
-0.074062556 0.18585509 1.5940001
0.83690721 0.23237716 1.9930001
0.83534145 0.230978 1.9810001
0.8388148 0.230978 1.9810001
0.83761114 0.22969542 1.9700001
0.84106523 0.22969542 1.9700001
0.8398037 0.22841287 1.9590001
0.84323847 0.22841287 1.9590001
0.84667325 0.22841287 1.9590001
0.84490067 0.22701371 1.9470001
0.8483144 0.22701371 1.9470001
0.85172814 0.22701371 1.9470001
0.85514188 0.22701371 1.9470001
0.85855561 0.22701371 1.9470001
0.86196935 0.22701371 1.9470001
0.8604939 0.22573115 1.9360001
0.85942614 0.22456518 1.9260001
0.85787529 0.22328262 1.9150001
0.86123294 0.22328262 1.9150001
0.86459059 0.22328262 1.9150001
0.8629626 0.22200005 1.904
0.86630094 0.22200005 1.904
0.86963928 0.22200005 1.904
0.87297767 0.22200005 1.904
0.87171352 0.22083409 1.8940001
0.86995226 0.21955152 1.8830001
0.87325382 0.21955152 1.8830001
0.8719002 0.21838556 1.8730001
0.87518424 0.21838556 1.8730001
0.87377805 0.21721959 1.863
0.8770445 0.21721959 1.863
0.88031095 0.21721959 1.863
0.88357741 0.21721959 1.863
0.88208359 0.21605362 1.853
0.88533252 0.21605362 1.853
0.88858145 0.21605362 1.853
0.88701749 0.21488765 1.8430001
0.88541842 0.21372169 1.8330001
0.88378429 0.21255572 1.8230001
0.88698065 0.21255572 1.8230001
0.89017695 0.21255572 1.8230001
0.89337331 0.21255572 1.8230001
0.89165151 0.21138975 1.8130001
0.89483035 0.21138975 1.8130001
0.89355129 0.21034038 1.8040001
0.89671427 0.21034038 1.8040001
0.89488906 0.20917442 1.794
0.89803451 0.20917442 1.794
0.89665902 0.20812505 1.7850001
0.89978874 0.20812505 1.7850001
0.90291846 0.20812505 1.7850001
-0.93224031 0.20072159 1.6960001
-0.92926663 0.20072159 1.6960001
-0.93120849 0.20178674 1.705
-0.93257433 0.20273355 1.7130001
-0.92957085 0.20273355 1.7130001
-0.92656738 0.20273355 1.7130001
-0.92841631 0.2037987 1.7220001
-0.9389258 0.2123199 1.794
-0.94099647 0.21350341 1.8040001
-0.93783343 0.21350341 1.8040001
-0.93933344 0.21456856 1.8130001
-0.9361546 0.21456856 1.8130001
-0.93812186 0.21575205 1.8230001
-0.93492556 0.21575205 1.8230001
-0.9317292 0.21575205 1.8230001
-0.9285329 0.21575205 1.8230001
-0.92533654 0.21575205 1.8230001
-0.92214024 0.21575205 1.8230001
-0.91894388 0.21575205 1.8230001
-0.91574758 0.21575205 1.8230001
-0.917557 0.21693555 1.8330001
-0.91933137 0.21811906 1.8430001
-0.92107069 0.21930255 1.853
-0.91782176 0.21930255 1.853
-0.91457283 0.21930255 1.853
-0.9113239 0.21930255 1.853
-0.91297555 0.22048604 1.863
-0.9097091 0.22048604 1.863
-0.90644264 0.22048604 1.863
-0.90802413 0.22166955 1.8730001
-0.90474015 0.22166955 1.8730001
-0.90145618 0.22166955 1.8730001
-0.90296751 0.22285305 1.8830001
-0.89966601 0.22285305 1.8830001
-0.90160084 0.2241549 1.8940001
-0.89828002 0.2241549 1.8940001
-0.89495921 0.2241549 1.8940001
-0.8916384 0.2241549 1.8940001
-0.89300776 0.2253384 1.904
-0.88966936 0.2253384 1.904
-0.89145166 0.22664025 1.9150001
-0.88809401 0.22664025 1.9150001
-0.88473636 0.22664025 1.9150001
-0.88644147 0.22794209 1.9260001
-0.88306457 0.22794209 1.9260001
-0.87968767 0.22794209 1.9260001
-0.88086063 0.2291256 1.9360001
-0.8774662 0.2291256 1.9360001
-0.87903804 0.23042744 1.9470001
-0.8756243 0.23042744 1.9470001
-0.87758631 0.23184764 1.9590001
-0.87415153 0.23184764 1.9590001
-0.87071675 0.23184764 1.9590001
-0.87215185 0.2331495 1.9700001
-0.86869776 0.2331495 1.9700001
-0.86524367 0.2331495 1.9700001
-0.86178964 0.2331495 1.9700001
-0.85833555 0.2331495 1.9700001
-0.85488147 0.2331495 1.9700001
-0.85142744 0.2331495 1.9700001
-0.42193615 0.2101896 1.7760001
-0.42094466 0.21125475 1.7850001
-0.41781494 0.21125475 1.7850001
-0.41468525 0.21125475 1.7850001
-0.41155556 0.21125475 1.7850001
-0.40636656 0.2101896 1.7760001
-0.40325263 0.2101896 1.7760001
-0.35209125 0.21125475 1.7850001
-0.34720209 0.2101896 1.7760001
-0.17189242 0.20178674 1.705
-0.16801141 0.20072159 1.6960001
-0.16503777 0.20072159 1.6960001
-0.15891074 0.19681604 1.6630001
-0.15524451 0.19586925 1.6550001
-0.15160635 0.19492245 1.6470001
-0.14871861 0.19492245 1.6470001
-0.14450271 0.1931472 1.6320001
-0.14164127 0.1931472 1.6320001
-0.13809955 0.19220039 1.6240001
-0.13525213 0.19220039 1.6240001
-0.13240471 0.19220039 1.6240001
-0.12716401 0.18864989 1.5940001
-0.12436919 0.18864989 1.5940001
-0.12210827 0.18947835 1.6010001
-0.11930119 0.18947835 1.6010001
-0.1164941 0.18947835 1.6010001
-0.11368701 0.18947835 1.6010001
-0.11039513 0.18864989 1.5940001
-0.10760031 0.18864989 1.5940001
-0.1048055 0.18864989 1.5940001
-0.10201069 0.18864989 1.5940001
-0.099215873 0.18864989 1.5940001
-0.096421063 0.18864989 1.5940001
-0.093156353 0.1877031 1.5860001
-0.090375565 0.1877031 1.5860001
-0.087594777 0.1877031 1.5860001
-0.08481399 0.1877031 1.5860001
-0.082809053 0.18947835 1.6010001
-0.080001973 0.18947835 1.6010001
-0.077194884 0.18947835 1.6010001
-0.074387796 0.18947835 1.6010001
-0.071938388 0.19042514 1.6090001
0.83690721 0.23587155 1.9930001
0.83534145 0.23445135 1.9810001
0.8388148 0.23445135 1.9810001
0.83761114 0.2331495 1.9700001
0.84106523 0.2331495 1.9700001
0.8398037 0.23184764 1.9590001
0.84323847 0.23184764 1.9590001
0.84667325 0.23184764 1.9590001
0.84490067 0.23042744 1.9470001
0.8483144 0.23042744 1.9470001
0.85172814 0.23042744 1.9470001
0.85514188 0.23042744 1.9470001
0.85855561 0.23042744 1.9470001
0.85709947 0.2291256 1.9360001
0.8604939 0.2291256 1.9360001
0.86388838 0.2291256 1.9360001
0.85787529 0.22664025 1.9150001
0.86123294 0.22664025 1.9150001
0.86459059 0.22664025 1.9150001
0.86794823 0.22664025 1.9150001
0.86630094 0.2253384 1.904
0.86963928 0.2253384 1.904
0.87297767 0.2253384 1.904
0.87171352 0.2241549 1.8940001
0.86995226 0.22285305 1.8830001
0.87325382 0.22285305 1.8830001
0.8719002 0.22166955 1.8730001
0.87518424 0.22166955 1.8730001
0.87377805 0.22048604 1.863
0.8770445 0.22048604 1.863
0.88031095 0.22048604 1.863
0.88357741 0.22048604 1.863
0.88208359 0.21930255 1.853
0.88533252 0.21930255 1.853
0.88378608 0.21811906 1.8430001
0.88701749 0.21811906 1.8430001
0.880588 0.21575205 1.8230001
0.88378429 0.21575205 1.8230001
0.88698065 0.21575205 1.8230001
0.88529396 0.21456856 1.8130001
0.88847274 0.21456856 1.8130001
0.89165151 0.21456856 1.8130001
0.89483035 0.21456856 1.8130001
0.89355129 0.21350341 1.8040001
0.89671427 0.21350341 1.8040001
0.89488906 0.2123199 1.794
0.89803451 0.2123199 1.794
0.89665902 0.21125475 1.7850001
0.89978874 0.21125475 1.7850001
0.90291846 0.21125475 1.7850001
-0.93224031 0.20369525 1.6960001
-0.92926663 0.20369525 1.6960001
-0.93120849 0.20477618 1.705
-0.93257433 0.20573701 1.7130001
-0.92957085 0.20573701 1.7130001
-0.92656738 0.20573701 1.7130001
-0.93421543 0.21438445 1.7850001
-0.93578029 0.21546538 1.794
-0.93783343 0.21666642 1.8040001
-0.93467045 0.21666642 1.8040001
-0.9361546 0.21774735 1.8130001
-0.93297583 0.21774735 1.8130001
-0.92979705 0.21774735 1.8130001
-0.9317292 0.21894838 1.8230001
-0.9285329 0.21894838 1.8230001
-0.92533654 0.21894838 1.8230001
-0.92214024 0.21894838 1.8230001
-0.91894388 0.21894838 1.8230001
-0.91574758 0.21894838 1.8230001
-0.917557 0.22014941 1.8330001
-0.91933137 0.22135045 1.8430001
-0.92107069 0.22255148 1.853
-0.91782176 0.22255148 1.853
-0.91457283 0.22255148 1.853
-0.9113239 0.22255148 1.853
-0.91297555 0.22375251 1.863
-0.9097091 0.22375251 1.863
-0.90644264 0.22375251 1.863
-0.90317619 0.22375251 1.863
-0.90474015 0.22495355 1.8730001
-0.90145618 0.22495355 1.8730001
-0.90296751 0.22615458 1.8830001
-0.89966601 0.22615458 1.8830001
-0.90160084 0.22747572 1.8940001
-0.89828002 0.22747572 1.8940001
-0.89495921 0.22747572 1.8940001
-0.8916384 0.22747572 1.8940001
-0.89300776 0.22867675 1.904
-0.88966936 0.22867675 1.904
-0.89145166 0.22999789 1.9150001
-0.88809401 0.22999789 1.9150001
-0.88473636 0.22999789 1.9150001
-0.88644147 0.23131903 1.9260001
-0.88306457 0.23131903 1.9260001
-0.87968767 0.23131903 1.9260001
-0.88086063 0.23252006 1.9360001
-0.8774662 0.23252006 1.9360001
-0.87407172 0.23252006 1.9360001
-0.8756243 0.2338412 1.9470001
-0.87221056 0.2338412 1.9470001
-0.86879683 0.2338412 1.9470001
-0.87071675 0.23528242 1.9590001
-0.87215185 0.23660356 1.9700001
-0.86384714 0.23528242 1.9590001
-0.86041236 0.23528242 1.9590001
-0.86178964 0.23660356 1.9700001
-0.85833555 0.23660356 1.9700001
-0.85488147 0.23660356 1.9700001
-0.85142744 0.23660356 1.9700001
-0.84797335 0.23660356 1.9700001
-0.42193615 0.21330352 1.7760001
-0.42094466 0.21438445 1.7850001
-0.41992158 0.21546538 1.794
-0.41468525 0.21438445 1.7850001
-0.41155556 0.21438445 1.7850001
-0.40636656 0.21330352 1.7760001
-0.40325263 0.21330352 1.7760001
-0.17189242 0.20477618 1.705
-0.16801141 0.20369525 1.6960001
-0.16425928 0.20273443 1.6880001
-0.1596752 0.20069267 1.6710001
-0.15599494 0.19973184 1.6630001
-0.15160635 0.19781019 1.6470001
-0.14799623 0.19684936 1.6390001
-0.14450271 0.19600864 1.6320001
-0.14094695 0.19504781 1.6240001
-0.13809955 0.19504781 1.6240001
-0.13458587 0.19408698 1.6160001
-0.13175248 0.19408698 1.6160001
-0.12891909 0.19408698 1.6160001
-0.12436919 0.19144471 1.5940001
-0.12157438 0.19144471 1.5940001
-0.11930119 0.19228543 1.6010001
-0.1164941 0.19228543 1.6010001
-0.11318994 0.19144471 1.5940001
-0.11039513 0.19144471 1.5940001
-0.10760031 0.19144471 1.5940001
-0.10526575 0.19228543 1.6010001
-0.10245866 0.19228543 1.6010001
-0.099651575 0.19228543 1.6010001
-0.096844487 0.19228543 1.6010001
-0.094037406 0.19228543 1.6010001
-0.091230318 0.19228543 1.6010001
-0.088036619 0.19144471 1.5940001
-0.085241809 0.19144471 1.5940001
-0.082809053 0.19228543 1.6010001
-0.080001973 0.19228543 1.6010001
-0.077194884 0.19228543 1.6010001
-0.074387796 0.19228543 1.6010001
-0.071938388 0.19324626 1.6090001
0.83690721 0.23936594 1.9930001
0.84040159 0.23936594 1.9930001
0.8388148 0.2379247 1.9810001
0.8422882 0.2379247 1.9810001
0.84106523 0.23660356 1.9700001
0.8398037 0.23528242 1.9590001
0.84323847 0.23528242 1.9590001
0.84667325 0.23528242 1.9590001
0.84490067 0.2338412 1.9470001
0.8483144 0.2338412 1.9470001
0.85172814 0.2338412 1.9470001
0.85514188 0.2338412 1.9470001
0.85855561 0.2338412 1.9470001
0.85709947 0.23252006 1.9360001
0.8604939 0.23252006 1.9360001
0.85942614 0.23131903 1.9260001
0.86280304 0.23131903 1.9260001
0.86123294 0.22999789 1.9150001
0.86459059 0.22999789 1.9150001
0.86794823 0.22999789 1.9150001
0.86630094 0.22867675 1.904
0.86507189 0.22747572 1.8940001
0.86839271 0.22747572 1.8940001
0.87171352 0.22747572 1.8940001
0.86995226 0.22615458 1.8830001
0.87325382 0.22615458 1.8830001
0.8719002 0.22495355 1.8730001
0.87518424 0.22495355 1.8730001
0.87377805 0.22375251 1.863
0.8770445 0.22375251 1.863
0.88031095 0.22375251 1.863
0.88357741 0.22375251 1.863
0.88208359 0.22255148 1.853
0.88533252 0.22255148 1.853
0.88378608 0.22135045 1.8430001
0.88220459 0.22014941 1.8330001
0.880588 0.21894838 1.8230001
0.88378429 0.21894838 1.8230001
0.88698065 0.21894838 1.8230001
0.88529396 0.21774735 1.8130001
0.88847274 0.21774735 1.8130001
0.89165151 0.21774735 1.8130001
0.89038825 0.21666642 1.8040001
0.89355129 0.21666642 1.8040001
0.8917436 0.21546538 1.794
0.89488906 0.21546538 1.794
0.89352936 0.21438445 1.7850001
0.89665902 0.21438445 1.7850001
0.89978874 0.21438445 1.7850001
0.90291846 0.21438445 1.7850001
-0.93224031 0.2066689 1.6960001
-0.92926663 0.2066689 1.6960001
-0.92629302 0.2066689 1.6960001
-0.93257433 0.20874047 1.7130001
-0.92957085 0.20874047 1.7130001
-0.92656738 0.20874047 1.7130001
-0.93573296 0.21641743 1.7760001
-0.93734515 0.21751414 1.7850001
-0.93421543 0.21751414 1.7850001
-0.93578029 0.21861085 1.794
-0.93783343 0.21982943 1.8040001
-0.93467045 0.21982943 1.8040001
-0.93150741 0.21982943 1.8040001
-0.93297583 0.22092614 1.8130001
-0.92979705 0.22092614 1.8130001
-0.92661828 0.22092614 1.8130001
-0.9285329 0.22214471 1.8230001
-0.92533654 0.22214471 1.8230001
-0.92214024 0.22214471 1.8230001
-0.91894388 0.22214471 1.8230001
-0.91574758 0.22214471 1.8230001
-0.917557 0.22336327 1.8330001
-0.91933137 0.22458184 1.8430001
-0.92107069 0.2258004 1.853
-0.91782176 0.2258004 1.853
-0.91457283 0.2258004 1.853
-0.916242 0.22701897 1.863
-0.91297555 0.22701897 1.863
-0.9097091 0.22701897 1.863
-0.90644264 0.22701897 1.863
-0.90317619 0.22701897 1.863
-0.89990973 0.22701897 1.863
-0.90145618 0.22823754 1.8730001
-0.8981722 0.22823754 1.8730001
-0.89488816 0.22823754 1.8730001
-0.89636451 0.2294561 1.8830001
-0.89828002 0.23079653 1.8940001
-0.89495921 0.23079653 1.8940001
-0.8916384 0.23079653 1.8940001
-0.89300776 0.23201509 1.904
-0.88966936 0.23201509 1.904
-0.88633102 0.23201509 1.904
-0.88809401 0.23335552 1.9150001
-0.88473636 0.23335552 1.9150001
-0.88137877 0.23335552 1.9150001
-0.87802112 0.23335552 1.9150001
-0.87968767 0.23469594 1.9260001
-0.88086063 0.2359145 1.9360001
-0.8774662 0.2359145 1.9360001
-0.87407172 0.2359145 1.9360001
-0.87067729 0.2359145 1.9360001
-0.87221056 0.23725493 1.9470001
-0.86879683 0.23725493 1.9470001
-0.86538309 0.23725493 1.9470001
-0.86728197 0.23871721 1.9590001
-0.86384714 0.23871721 1.9590001
-0.86041236 0.23871721 1.9590001
-0.86178964 0.24005763 1.9700001
-0.85833555 0.24005763 1.9700001
-0.85488147 0.24005763 1.9700001
-0.85142744 0.24005763 1.9700001
-0.84797335 0.24005763 1.9700001
-0.84451932 0.24005763 1.9700001
-0.84576154 0.24139805 1.9810001
-0.8422882 0.24139805 1.9810001
-0.42193615 0.21641743 1.7760001
-0.42306706 0.21861085 1.794
-0.41992158 0.21861085 1.794
-0.41468525 0.21751414 1.7850001
-0.41155556 0.21751414 1.7850001
-0.40842584 0.21751414 1.7850001
-0.40733966 0.21861085 1.794
-0.16801141 0.2066689 1.6960001
-0.16425928 0.20569405 1.6880001
-0.1596752 0.20362249 1.6710001
-0.15599494 0.20264764 1.6630001
-0.15160635 0.20069793 1.6470001
-0.14799623 0.19972308 1.6390001
-0.14450271 0.19887008 1.6320001
-0.14094695 0.19789523 1.6240001
-0.13809955 0.19789523 1.6240001
-0.13458587 0.19692037 1.6160001
-0.13175248 0.19692037 1.6160001
-0.12891909 0.19692037 1.6160001
-0.12436919 0.19423953 1.5940001
-0.12157438 0.19423953 1.5940001
-0.11877956 0.19423953 1.5940001
-0.11598475 0.19423953 1.5940001
-0.11318994 0.19423953 1.5940001
-0.11039513 0.19423953 1.5940001
-0.10760031 0.19423953 1.5940001
-0.10526575 0.19509253 1.6010001
-0.10245866 0.19509253 1.6010001
-0.10014952 0.19606738 1.6090001
-0.09732841 0.19606738 1.6090001
-0.094918452 0.19692037 1.6160001
-0.091230318 0.19509253 1.6010001
-0.088036619 0.19423953 1.5940001
-0.085241809 0.19423953 1.5940001
-0.082809053 0.19509253 1.6010001
-0.080001973 0.19509253 1.6010001
-0.077194884 0.19509253 1.6010001
-0.074759506 0.19606738 1.6090001
-0.071938388 0.19606738 1.6090001
-0.069117278 0.19606738 1.6090001
0.83341283 0.24286033 1.9930001
0.83690721 0.24286033 1.9930001
0.84040159 0.24286033 1.9930001
0.8388148 0.24139805 1.9810001
0.83761114 0.24005763 1.9700001
0.84106523 0.24005763 1.9700001
0.8398037 0.23871721 1.9590001
0.84323847 0.23871721 1.9590001
0.84148693 0.23725493 1.9470001
0.84490067 0.23725493 1.9470001
0.8483144 0.23725493 1.9470001
0.85172814 0.23725493 1.9470001
0.85031056 0.2359145 1.9360001
0.85370499 0.2359145 1.9360001
0.85267228 0.23469594 1.9260001
0.85604924 0.23469594 1.9260001
0.85942614 0.23469594 1.9260001
0.86280304 0.23469594 1.9260001
0.86123294 0.23335552 1.9150001
0.86459059 0.23335552 1.9150001
0.86794823 0.23335552 1.9150001
0.86630094 0.23201509 1.904
0.86507189 0.23079653 1.8940001
0.86839271 0.23079653 1.8940001
0.87171352 0.23079653 1.8940001
0.86995226 0.2294561 1.8830001
0.87325382 0.2294561 1.8830001
0.8719002 0.22823754 1.8730001
0.87518424 0.22823754 1.8730001
0.87377805 0.22701897 1.863
0.8770445 0.22701897 1.863
0.88031095 0.22701897 1.863
0.87883466 0.2258004 1.853
0.88208359 0.2258004 1.853
0.88533252 0.2258004 1.853
0.88378608 0.22458184 1.8430001
0.88220459 0.22336327 1.8330001
0.880588 0.22214471 1.8230001
0.88378429 0.22214471 1.8230001
0.88211513 0.22092614 1.8130001
0.88529396 0.22092614 1.8130001
0.88847274 0.22092614 1.8130001
0.89165151 0.22092614 1.8130001
0.88545263 0.21861085 1.794
0.88859808 0.21861085 1.794
0.8917436 0.21861085 1.794
0.89488906 0.21861085 1.794
0.89352936 0.21751414 1.7850001
0.89665902 0.21751414 1.7850001
0.89978874 0.21751414 1.7850001
0.90291846 0.21751414 1.7850001
-0.92784297 0.20865367 1.6880001
-0.92488331 0.20865367 1.6880001
-0.92629302 0.20964256 1.6960001
-0.93884689 0.21953136 1.7760001
-0.94047487 0.22064385 1.7850001
-0.93734515 0.22064385 1.7850001
-0.93421543 0.22064385 1.7850001
-0.93578029 0.22175634 1.794
-0.93263483 0.22175634 1.794
