# .PCD v0.7 - Point Cloud Data file format
VERSION 0.7
FIELDS x y z
SIZE 4 4 4
TYPE F F F
COUNT 1 1 1
WIDTH 1494
HEIGHT 1
VIEWPOINT 0 0 0 1 0 0 0
POINTS 1494
DATA ascii
-0.15122437 0.44957751 1.7443953
-0.073744439 0.44972509 1.7443807
0.069005892 0.45396662 1.7755885
0.16264793 0.4517118 1.748237
0.24791709 0.45014825 1.7434624
0.34880632 0.44817567 1.7429581
-0.9231984 0.69986928 1.794
-0.82749254 0.69560063 1.7811004
-0.75544649 0.6983971 1.7923021
0.63538694 0.69986928 1.794
-0.91095161 0.70889539 1.7864999
-0.853971 0.70694089 1.7686572
-0.75241107 0.70792627 1.7770993
-0.68799978 0.70992249 1.7771478
0.59232366 0.71434999 1.7806959
0.64754105 0.7133559 1.7854887
0.73241371 0.71883327 1.7916577
0.83807385 0.7240501 1.7940003
-0.42455816 0.44046983 1.8482807
-0.35150796 0.44487947 1.8444573
-0.24941374 0.44429097 1.8482209
-0.1496111 0.44478667 1.8513026
-0.076520257 0.44254184 1.8458027
0.076990612 0.44656697 1.8411765
0.14894979 0.44468522 1.8484347
0.25078177 0.44293594 1.8500755
0.3447628 0.44089293 1.8508128
-0.91213757 0.69167191 1.8347801
-0.84852314 0.68798798 1.838256
-0.75424862 0.69362015 1.8469471
-0.6857819 0.69528043 1.8595001
0.57409018 0.69765508 1.8305001
0.66107744 0.69573855 1.8652138
0.75029278 0.69444245 1.8747524
0.80197644 0.69571036 1.8940001
-0.9173311 0.70699233 1.8136675
-0.87959671 0.70329475 1.8163199
-0.74189931 0.70355648 1.8176408
-0.68288952 0.70836657 1.8330201
0.58910453 0.70838797 1.840083
0.64440352 0.70612043 1.8306302
0.75200844 0.71107072 1.8342952
0.84712625 0.71912593 1.8471853
0.90426618 0.72687989 1.8812224
-0.15462218 0.33869538 1.9699999
-0.43149805 0.4361338 1.9464543
-0.34766144 0.43618786 1.9424196
-0.24980547 0.43586776 1.9495099
-0.14998618 0.43575683 1.9453249
-0.060861077 0.43338361 1.9565974
0.059073623 0.43312281 1.9578967
0.14946942 0.43393326 1.9448243
0.24988824 0.43414056 1.9486905
0.34426025 0.43159333 1.9471213
-0.91156209 0.68652123 1.9343255
-0.85319459 0.68410212 1.9570349
-0.74862188 0.68835747 1.9584621
-0.68389297 0.68945664 1.9633851
0.59090745 0.69082969 1.965842
0.65439928 0.68852943 1.9553903
0.74932665 0.68896574 1.95418
0.83368558 0.68801224 1.9614637
-0.85889477 0.7030167 1.9412849
-0.75563425 0.70227718 1.9362584
-0.684075 0.70752549 1.9448336
0.58950824 0.70618039 1.9323266
0.62607872 0.70409811 1.9311489
0.75359321 0.70222485 1.9279413
0.85644877 0.7065897 1.9333959
0.90413558 0.72163928 1.904
-0.17884332 0.35426238 2.0459094
-0.06826365 0.39476264 2.0724287
-0.42503506 0.42619801 2.0478833
-0.34897557 0.42914867 2.0476625
-0.25022456 0.42886809 2.0531898
-0.14506817 0.42510802 2.0482974
-0.056672022 0.42129543 2.0508456
0.05046558 0.4294228 2.0569952
0.14931168 0.4276208 2.0483253
0.2507368 0.42750832 2.0512896
0.34290746 0.42483357 2.0503445
-0.83920318 0.67963701 2.0373759
-0.75123829 0.68541276 2.0458634
-0.68179286 0.68452126 2.0298102
0.59081298 0.68967211 2.0378892
0.65172452 0.68527544 2.0445683
0.75130677 0.68459362 2.0461357
0.81623811 0.68527216 2.0624125
-0.20666461 0.38673961 2.167625
-0.17457511 0.38868687 2.1446126
-0.047879778 0.38639122 2.1490645
0.0030069666 0.39158776 2.1820002
-0.42965919 0.4183 2.1531823
-0.34837374 0.41930437 2.1450219
-0.24870722 0.41818404 2.1519687
-0.16779467 0.41262883 2.1256263
-0.028758762 0.41291809 2.1224668
0.049554523 0.42042053 2.1440487
0.15103252 0.41865379 2.1433861
0.2489004 0.4175227 2.1541035
0.34657398 0.41584343 2.147866
-0.83514464 0.68945432 2.1524374
-0.75009501 0.68936491 2.1523359
-0.68703318 0.6858272 2.1729696
0.59520131 0.69425744 2.1633027
0.64942664 0.68690187 2.1544611
0.74695873 0.68191445 2.1561277
0.82114094 0.68037975 2.1581728
-0.70518428 0.70452112 2.1491175
-0.69106543 0.70571363 2.1560001
0.59585226 0.70237362 2.1470001
0.60306162 0.70263255 2.1430001
-0.32064959 0.39880794 2.286
-0.22171368 0.39365485 2.2120001
-0.13423999 0.37599531 2.2615209
-0.079739563 0.37612125 2.2312493
0.090049893 0.39748114 2.2335
-0.42627129 0.41275302 2.2528727
-0.35011661 0.41143328 2.2500472
-0.26378188 0.40740642 2.2142396
0.051897388 0.40946579 2.237746
0.15459128 0.41434783 2.2435312
0.25907183 0.4099912 2.24806
0.34034547 0.40931818 2.2470949
-0.84146303 0.68011379 2.2534747
-0.75322616 0.68002421 2.248596
-0.68651515 0.676103 2.2484477
0.59228462 0.68051398 2.2598221
0.65018749 0.67147005 2.2469363
0.7513777 0.66713291 2.2507472
0.82019097 0.67366284 2.2545474
-0.88811374 0.70070606 2.2265
-0.43990692 0.39800358 2.3895001
-0.1687254 0.36481223 2.3220918
0.069870025 0.39735833 2.3635294
0.13634798 0.39774242 2.3927696
0.25336951 0.39772913 2.3883917
0.33725807 0.39630142 2.379117
-0.42402744 0.40585482 2.3462405
-0.37880555 0.40703079 2.3379393
0.051894754 0.40670449 2.3597183
0.15005985 0.40847057 2.3532958
0.24691319 0.40510184 2.3381827
0.34150228 0.40337124 2.3341792
-0.90390188 0.6811924 2.3566668
-0.8439343 0.66469371 2.3438008
-0.75176889 0.66421354 2.3426087
-0.68096232 0.66602182 2.3468208
0.58563745 0.66572237 2.3368118
0.64893824 0.65877521 2.3397484
0.74622041 0.65517598 2.3414288
0.83632481 0.66023916 2.3325469
0.88155675 0.70077664 2.3170002
-0.4239879 0.39636528 2.457186
-0.38821176 0.39518294 2.4850004
-0.039441574 0.39381474 2.4607565
0.048949018 0.39574122 2.4538107
0.15124922 0.39404318 2.4501281
0.25252897 0.39360496 2.45382
0.33942452 0.39079601 2.4475787
-0.41416293 0.4008486 2.4249291
-0.39038694 0.40420151 2.4640627
-0.027624069 0.40548477 2.4358718
0.037879109 0.40372092 2.4327044
0.16069201 0.40058148 2.4232109
0.24206083 0.4001413 2.4150004
-0.91891527 0.66256005 2.4484487
-0.84725487 0.65465134 2.452189
-0.74792898 0.64694065 2.4513791
-0.67748439 0.64818144 2.4463544
0.59071392 0.65355486 2.4368153
0.64925057 0.64571971 2.4361529
0.75036621 0.64340401 2.4304326
0.81918555 0.648462 2.4240203
-0.42394179 0.3881878 2.5378861
-0.37062985 0.38902876 2.5688314
-0.12626031 0.39028138 2.5803332
-0.048879407 0.38702306 2.5452554
0.05069929 0.38799128 2.5439017
0.14837064 0.38461959 2.5476961
0.24601978 0.38420016 2.5359998
0.34175223 0.38476914 2.5524828
-0.37807301 0.40018255 2.5220001
-0.10024245 0.40319741 2.5410001
-0.085973591 0.4043456 2.5254548
-0.9051522 0.65120471 2.5410001
-0.84462774 0.64847046 2.5474617
-0.74554604 0.64834625 2.5550005
-0.69290811 0.64496166 2.5353003
0.59823257 0.66074312 2.5657001
0.64697242 0.64828891 2.5631647
0.76005852 0.64555657 2.557708
0.80475277 0.63553393 2.5448
-1.45338 -0.0042290399 2.6800001
-1.4495426 0.044516582 2.6752374
-1.4521587 0.1464007 2.6773748
-0.42171019 0.38351491 2.6534572
-0.3421126 0.38407937 2.6463277
-0.23016323 0.38735244 2.6543274
-0.15095717 0.38313392 2.6505365
-0.048350606 0.37892541 2.6482737
0.050745983 0.37933445 2.6464834
0.14683439 0.374751 2.6464274
0.25143585 0.37981826 2.6484456
0.33896178 0.37415826 2.6491256
-0.20440359 0.40645772 2.6800001
-0.18493143 0.40361452 2.6552
-0.9148044 0.64801008 2.6770694
-0.84879565 0.64726096 2.6577497
-0.74900508 0.65132165 2.6533992
-0.68595248 0.65082091 2.6715457
0.59536308 0.65805733 2.6696002
0.64304632 0.64629239 2.6546345
0.7507273 0.64127415 2.6515412
0.81626725 0.6376527 2.6483252
-1.4601057 -0.0072618532 2.7540646
-1.4524463 0.051044647 2.739918
-1.4641922 0.14535704 2.7456665
-1.4757761 0.24693106 2.7529047
-1.4832536 0.34941751 2.7623641
-0.42665678 0.37539041 2.733983
-0.35315034 0.3751235 2.7424822
-0.2530545 0.37651244 2.7350132
-0.14977664 0.37080559 2.741055
-0.054675091 0.37150803 2.7488952
0.051787123 0.37059018 2.7491748
0.15405621 0.36788052 2.7461603
0.25313574 0.37214386 2.7506793
0.33110926 0.36602485 2.7387688
-1.502232 0.4583706 2.7692001
-1.488692 0.44717732 2.7677364
-1.5089862 0.54831582 2.7824006
-1.4967542 0.52080649 2.7761667
-0.79079014 0.59915698 2.7670002
0.67435479 0.59915698 2.7670002
0.75127012 0.59453315 2.7351577
-1.5136083 0.64837813 2.7869544
-0.91477513 0.63085687 2.7585177
-0.84641969 0.63119292 2.7594616
-0.74945545 0.62993455 2.7440836
-0.6822359 0.63138348 2.7425504
0.59433949 0.63489282 2.7347002
0.65190941 0.63052166 2.7501504
0.74441659 0.62357277 2.7331841
0.82105047 0.63110805 2.7483444
-1.5159144 0.70905674 2.7889998
-1.4662458 -0.0092031201 2.8489432
-1.4623108 0.047871854 2.850121
1.4709643 0.022746868 2.8830001
-1.4751995 0.15384665 2.8439062
-1.4819671 0.25053963 2.8472285
-0.086438105 0.27953377 2.8829999
-1.5022391 0.35750237 2.8590004
-1.4887007 0.34683412 2.8492734
-0.42214334 0.3674849 2.8542061
-0.35081545 0.36190194 2.8510158
-0.23818895 0.36339384 2.8529983
-0.15481593 0.35926801 2.8477335
-0.052925006 0.36289173 2.8449039
0.046635743 0.36170018 2.8411336
0.14774266 0.35498652 2.8460281
0.25516149 0.35712516 2.8376758
0.33771044 0.35895255 2.8437996
-1.5053717 0.45253405 2.8615682
-1.4940455 0.44338727 2.8353925
-1.5100571 0.55529958 2.8475006
-1.4949125 0.56253499 2.8542416
-1.5145547 0.65196711 2.8451064
-1.4938132 0.6400997 2.867183
-0.90769547 0.62021434 2.8202145
-0.876203 0.62070078 2.8140001
-0.72346854 0.61940324 2.8177502
0.59271067 0.63381624 2.8368006
0.64515007 0.62317985 2.8191154
0.71551245 0.61617577 2.8180525
0.83566976 0.62726617 2.8472311
-1.5283773 0.74784219 2.8529451
-1.4962385 0.7000981 2.8830001
-1.540399 0.84513336 2.8663988
-1.561952 0.93498075 2.8830006
-1.517126 -0.019528627 2.9710002
-1.4772322 -0.012061651 2.9575362
1.4885141 -0.011323372 2.9599645
1.5097524 -0.021011485 2.9716847
-1.4701773 0.053680584 2.9455175
1.0306935 0.049703494 2.9840002
1.4885745 0.043955803 2.9473894
1.5034891 0.07021223 2.9660003
-1.4779361 0.15296517 2.9378521
1.4916897 0.12950145 2.9464529
1.5059721 0.17759478 2.9636221
-1.487543 0.24760877 2.9452574
-0.13283379 0.28812581 2.9185264
-0.049746256 0.29076514 2.9153082
0.044499733 0.29193678 2.9296658
1.4964752 0.23655623 2.9330003
1.5111295 0.24525453 2.971
-1.5041987 0.36106908 2.9489784
-1.4925009 0.34719613 2.9488318
-0.4304561 0.35712221 2.9151423
-0.34246224 0.35733342 2.9080007
-0.26702055 0.35714278 2.9311943
-0.14461432 0.33252698 2.9205012
-0.046823386 0.33107084 2.913697
0.049923111 0.33007351 2.9231267
0.12471657 0.34207714 2.9267507
0.22903569 0.35315341 2.9144511
0.33826512 0.3491163 2.9121666
1.5203445 0.34693256 2.9756811
-1.5081824 0.45114356 2.944947
-1.4960464 0.44825232 2.9689417
1.5199628 0.45780873 2.9726255
-1.5121012 0.54449278 2.9430654
-1.4945084 0.57774758 2.9621434
0.92082262 0.56505024 2.9840002
1.5277283 0.50488287 2.9840002
-1.515308 0.65670264 2.9467027
-1.4964665 0.68832362 2.9080002
0.83832562 0.63693154 2.9675601
0.95673913 0.65772587 2.9827325
1.0471929 0.67025077 2.9797266
1.1125715 0.67458415 2.9712198
-1.5248036 0.75480109 2.944406
0.97987914 0.73460305 2.9823215
1.0502627 0.7320739 2.9780171
1.1124986 0.75532234 2.9803572
-1.5341038 0.85422772 2.947237
-1.4913328 0.86908698 2.9330003
1.0830129 0.80571979 2.9840002
1.1080605 0.81140214 2.9734554
-1.5514901 0.94785738 2.9510286
-1.6072097 1.0859293 2.9640005
-1.578627 1.0316656 2.9459717
-1.605997 1.1199222 2.9731672
-1.596889 1.1119359 2.9661255
1.559779 -1.2125653 3.0694821
1.5712047 -1.1608617 3.0805888
1.5757401 -1.0537004 3.0920005
1.5830216 -0.98396713 3.0920007
1.5776002 -0.51231354 3.0920007
0.85114515 -0.13011137 3.0920002
1.0408909 -0.19516703 3.0920002
-1.6134366 -0.021299493 3.0370002
-1.5324068 -0.028210854 3.0482273
-1.4822387 -0.015561748 3.0376523
0.8549611 -0.062574983 3.089
1.5461001 -0.03189598 3.0302503
-1.4769442 0.048776999 3.0337515
0.95930994 0.078985743 3.0785186
1.0365001 0.075825356 3.0720463
1.4961808 0.047120836 3.0100005
1.5139745 0.067502588 3.0391488
-1.5042768 0.13844672 3.0370004
-1.4802699 0.14772926 3.024539
0.89228511 0.15205361 3.0746887
0.94394881 0.14157534 3.0555115
1.0331115 0.13183087 3.0712161
1.5217746 0.15647274 3.0404127
-1.5042329 0.27010119 3.0407121
-1.4919932 0.24569343 3.0326324
1.5321568 0.2551319 3.039566
-1.507364 0.3416726 3.0405748
-1.4965851 0.36564127 3.0369999
1.052193 0.37373337 3.0896232
1.5443441 0.33956698 3.0459294
-1.5083983 0.44579425 3.0203271
-1.4955496 0.43392467 3.0167503
0.86596626 0.48960885 3.0885005
0.96811181 0.48353824 3.0788808
1.0614069 0.43093106 3.08708
1.1056454 0.43219861 3.0920005
1.5483867 0.43456098 3.0340004
-1.5194753 0.55352944 3.0331376
0.86796743 0.54660344 3.0642946
0.9466666 0.54525483 3.0491805
1.0465243 0.57143265 3.0660348
1.1092639 0.59413958 3.0392501
1.5672736 0.55514717 3.0650826
-1.5248994 0.64449793 3.0212808
0.85871446 0.63029867 3.0554459
0.95147049 0.64494067 3.0402327
1.0454857 0.63886458 3.0336039
1.1216925 0.64176887 3.0286911
1.5686796 0.64003235 3.067317
-1.5300492 0.74974102 3.0289738
0.96129769 0.71552616 3.0255005
1.0593598 0.76394165 3.0239131
1.1191291 0.7587229 3.0128927
-1.5342267 0.82953662 3.0105879
1.0825967 0.81091332 3.0215719
1.1126822 0.83635598 3.0340004
-1.5582314 0.96629548 3.0183372
-1.6023734 1.0792854 3.0302503
-1.5768244 1.0584565 3.0428243
-1.6152138 1.159562 3.0422838
-1.5875406 1.1420007 3.0704618
1.5830216 1.157449 3.0920005
-1.6325039 1.2201351 3.0694923
-1.5965748 1.2008194 3.0920002
1.5722296 1.2383962 3.0823083
-1.6158451 -1.2189884 3.1780002
-1.5546438 -1.2281938 3.1705289
-1.4511051 -1.2278808 3.1549156
-1.3516607 -1.2309823 3.1744952
-1.2531639 -1.2330061 3.1780019
-1.1609017 -1.2478065 3.1779988
-1.0580921 -1.2458473 3.1780007
-0.97161585 -1.2386476 3.1780012
-0.86924654 -1.253721 3.1780002
0.49313027 -1.2462916 3.1780002
0.54374349 -1.2465236 3.178
0.65071201 -1.2295568 3.1696646
0.75751507 -1.2305284 3.1780028
0.85234773 -1.231353 3.1779969
0.94939268 -1.231406 3.1756766
1.0459518 -1.2339478 3.1730092
1.1449174 -1.2345394 3.1705396
1.2477556 -1.2305483 3.1780019
1.3306344 -1.237644 3.1780012
1.5720371 -1.2318764 3.1631451
-1.6286664 -1.151082 3.1780021
-1.5503645 -1.1467613 3.1658037
-1.4494747 -1.1466814 3.151082
-1.3615484 -1.1581364 3.1686707
-1.2573267 -1.1721064 3.1779981
-1.1495228 -1.1779404 3.178
0.49591628 -1.1088465 3.178
0.58024782 -1.1335994 3.1779995
0.64363688 -1.1535155 3.1686711
0.76176727 -1.1439346 3.1779945
0.85233468 -1.1463253 3.171701
0.9496125 -1.1470531 3.1649649
1.0479884 -1.1426444 3.1614449
1.150519 -1.1485536 3.1567304
1.2498596 -1.1477674 3.1690454
1.3419256 -1.1451854 3.1769512
1.4326472 -1.1302061 3.1780007
1.5789418 -1.1476558 3.1504083
1.6000919 -1.11505 3.1200004
-1.7139252 -1.0158942 3.1780009
-1.644646 -1.0448332 3.177994
-1.5474426 -1.0495635 3.1505742
-1.4485883 -1.0452158 3.1503816
-1.3727982 -1.0547251 3.1678183
-1.2915319 -1.0793942 3.1780005
0.59231353 -1.0899013 3.178
0.65118378 -1.0375483 3.1780007
0.75997704 -1.0384285 3.1779966
0.85352147 -1.04998 3.1774156
0.95058089 -1.0473154 3.1686163
1.0484405 -1.047474 3.1530013
1.1483167 -1.0495983 3.1485319
1.2466803 -1.0454727 3.1516006
1.3417331 -1.0471323 3.1720185
1.4320877 -1.025739 3.1779988
1.5804641 -1.0406153 3.1583538
1.6032404 -1.0477525 3.1627371
-1.7128879 -0.95030713 3.1780007
-1.6514409 -0.94813532 3.1661491
-1.550873 -0.94867992 3.1537483
-1.4503442 -0.95181966 3.1612067
-1.3904852 -0.94147599 3.1712568
0.66066462 -0.94316959 3.1780012
0.75869519 -0.97761512 3.1779993
0.8536821 -0.95655078 3.1779976
0.95312297 -0.95344865 3.1737685
1.0484517 -0.94993055 3.1596301
1.1465607 -0.94806737 3.1503937
1.2479773 -0.95012176 3.1516192
1.3399022 -0.94581807 3.1616669
1.4457238 -0.9309212 3.1779993
1.5660406 -0.94943881 3.1708438
1.6061018 -0.94819033 3.1610136
-1.7067322 -0.89766425 3.1780002
-1.6569188 -0.89381659 3.1657567
-1.5528131 -0.89186436 3.1668139
-1.4639816 -0.88873798 3.154074
0.98556399 -0.89780354 3.178
1.0481108 -0.89933568 3.1780007
1.1475259 -0.89853382 3.1635008
1.241964 -0.89586574 3.1695633
1.3378199 -0.89077622 3.1733601
1.4571024 -0.89432096 3.1780005
1.5940924 -0.88087112 3.150001
1.6098961 -0.8497867 3.1603801
1.5957857 -0.73706412 3.178
1.6128145 -0.75233036 3.1698797
1.5948569 -0.65967393 3.1780007
1.6111485 -0.65214682 3.1679618
1.5921624 -0.52960598 3.1413686
1.6085973 -0.56438714 3.1630967
1.5942173 -0.47279122 3.1467698
1.6160362 -0.45677438 3.1733437
0.97261041 -0.32211897 3.1674538
1.0090132 -0.32364577 3.1780009
1.5891817 -0.37611634 3.1780009
1.6174742 -0.37036997 3.1779983
0.8869943 -0.21706599 3.1764748
0.95769054 -0.24133828 3.1570969
1.0376161 -0.23326159 3.1539774
1.5852606 -0.23402791 3.178
1.617972 -0.24520487 3.1779981
0.79074562 -0.12127496 3.1780009
0.85320222 -0.14563015 3.1512361
0.9500773 -0.15150484 3.1457257
1.0245256 -0.15658565 3.1522391
1.5874599 -0.16701615 3.1780009
1.6179663 -0.14895256 3.1779981
-1.7083752 -0.030526083 3.1627378
-1.6576154 -0.029932989 3.158196
-1.5476964 -0.032241173 3.1490002
0.79055309 -0.081552036 3.1621833
0.84760225 -0.064838521 3.1393304
0.93727028 -0.064508945 3.1564636
1.003534 -0.09416838 3.1780002
1.5845951 -0.053011294 3.1652069
1.6130619 -0.068654686 3.1731656
-1.510061 0.046930596 3.1490002
0.89446664 0.070595793 3.1565187
0.94962293 0.051860485 3.1413546
1.0358492 0.041959148 3.1453731
1.1004884 0.078009307 3.1780002
1.564104 0.05715951 3.164001
0.88766819 0.1428493 3.1590116
0.96435148 0.18363038 3.1324289
1.0439255 0.16981423 3.1296673
1.1139678 0.12930532 3.1522229
1.5704527 0.14345264 3.1569092
-1.532146 0.21808924 3.1490002
0.87760472 0.24238607 3.178
0.98286456 0.24919885 3.1650181
1.0238752 0.26498258 3.171958
1.5754608 0.25237593 3.1548011
-1.551828 0.31482327 3.1780002
0.89285457 0.37728938 3.1780007
0.97498852 0.35224125 3.1580606
1.045489 0.33923301 3.1438074
1.132459 0.35324949 3.1520598
1.5854827 0.34772786 3.165947
1.6019766 0.37541977 3.178
0.86442727 0.449202 3.1597774
0.9556753 0.45621407 3.1535466
1.0324999 0.43195367 3.1464386
1.1361386 0.42058119 3.1452982
1.5939705 0.44715568 3.1506114
1.605559 0.45412564 3.1780009
-1.5652735 0.57483292 3.1490002
0.84379107 0.55134499 3.1447067
0.92012423 0.5099507 3.1260421
1.0491899 0.59166545 3.1420183
1.1014887 0.59077334 3.1490002
1.5886487 0.532152 3.1534619
1.6105118 0.54988086 3.1753645
-1.5652734 0.64049006 3.1490002
0.85641509 0.61547941 3.1499665
0.91355687 0.61870223 3.1200006
1.0092888 0.60447919 3.1200001
1.5940844 0.65152377 3.1354673
1.6106192 0.65877098 3.1736507
-1.5756167 0.74487036 3.1586671
1.6233366 0.71137059 3.1780002
-1.6087214 1.160464 3.1345
-1.5918864 1.148784 3.1200004
1.6122041 1.1898286 3.1490002
-1.6387323 1.2413671 3.15625
1.575601 1.2658736 3.1432004
1.6242621 1.2351055 3.1759775
1.4386433 -1.3039496 3.2690005
1.5227075 -1.3039496 3.2690005
-1.7287259 -1.2496325 3.2672951
-1.6698362 -1.2542021 3.2414744
-1.5589775 -1.2702432 3.2080002
-1.3152409 -1.2039969 3.2080002
-1.2320117 -1.2288326 3.2080035
-1.147547 -1.2322371 3.208159
-1.048944 -1.2339559 3.2125154
-0.94444662 -1.2360395 3.2082922
-0.84830445 -1.2371752 3.2096598
-0.74722224 -1.2419721 3.2349937
-0.64907521 -1.2423323 3.2464278
-0.55075943 -1.2441591 3.2436337
-0.44937891 -1.242498 3.2349277
-0.34976128 -1.2436609 3.2384696
-0.24974643 -1.2430724 3.2374101
-0.15095682 -1.2412745 3.2288365
-0.048887581 -1.2428302 3.2320921
0.049493864 -1.2444432 3.2529919
0.15034635 -1.2451279 3.2421257
0.25051916 -1.2450098 3.2426531
0.3491641 -1.2429569 3.2362354
0.44785312 -1.2384999 3.2153072
0.55133098 -1.2328669 3.2142479
0.64361829 -1.230836 3.2080021
0.74060601 -1.2368579 3.2080045
0.85776573 -1.2289954 3.2080002
0.90276325 -1.273993 3.2080002
1.037756 -1.2346202 3.2080002
1.1134337 -1.2208141 3.2080002
1.2620953 -1.2568294 3.2108154
1.368964 -1.2347876 3.2203786
1.4604305 -1.2487078 3.2419667
1.5455438 -1.2429633 3.2321179
-1.7389344 -1.1534137 3.2504706
-1.6717976 -1.1425922 3.2090738
-1.4033611 -1.1333758 3.2080004
-1.3486931 -1.1428162 3.2080061
-1.249408 -1.147125 3.2143521
-1.1497021 -1.1478641 3.2088459
-1.0526839 -1.1498237 3.2162182
-0.94954938 -1.1472818 3.229033
-0.85222137 -1.1518749 3.2326307
-0.75841993 -1.1517553 3.2364929
-0.64359468 -1.1536012 3.263232
-0.54617763 -1.1518092 3.2546599
-0.44639876 -1.1500726 3.2418985
-0.3503089 -1.1490183 3.2387631
-0.2499025 -1.1493021 3.2399778
-0.14946005 -1.1497563 3.2332783
-0.051417384 -1.1477996 3.2291398
0.050612658 -1.1496255 3.2595448
0.14937104 -1.1512923 3.2560768
0.24896419 -1.1495636 3.2440295
0.35037208 -1.1497989 3.2378094
0.44829193 -1.1509744 3.2290854
0.54824281 -1.1537931 3.2165401
0.65378636 -1.1422621 3.2110937
0.71524888 -1.1510144 3.2135386
0.82401758 -1.1221263 3.2080002
1.273993 -1.143219 3.2080002
1.3663741 -1.1508461 3.2080033
1.4536083 -1.1489811 3.2157774
1.5502554 -1.1471004 3.220695
-1.7262264 -1.0750411 3.2178719
-1.6937355 -1.0700978 3.2080002
-1.4085839 -1.04097 3.2080004
-1.3518881 -1.0479698 3.2094493
-1.2474978 -1.0495242 3.2102349
-1.1531496 -1.0515887 3.2267318
-1.0527622 -1.0532225 3.2322488
-0.95158076 -1.0494882 3.2354062
-0.84924823 -1.0473664 3.2423334
-0.75769305 -1.0512156 3.25173
-0.64674884 -1.0612184 3.2627432
-0.54385966 -1.0615978 3.2614257
-0.44832551 -1.0439607 3.2616377
-0.3486937 -1.0460658 3.245928
-0.24965079 -1.0523934 3.2522058
-0.15127173 -1.0512664 3.2409389
-0.052977517 -1.0510206 3.2446339
0.050097801 -1.0482413 3.2680273
0.14888269 -1.0518394 3.2663074
0.25159776 -1.049641 3.2473893
0.34818059 -1.0475035 3.2471559
0.44869852 -1.0503244 3.2354496
0.54949915 -1.0529797 3.2227812
0.64603704 -1.0512635 3.2152648
0.73628134 -1.0728623 3.2140052
0.84452033 -1.0188857 3.2080002
1.3907791 -1.0568502 3.2080002
1.4578731 -1.0594667 3.2080064
1.5421671 -1.051694 3.2097092
1.6002252 -1.0040077 3.2080002
-1.7417861 -0.94988078 3.2291815
-1.659336 -0.90699917 3.2425454
-1.5962635 -0.90273434 3.2690001
-1.4198021 -0.9253214 3.2438917
-1.3490562 -0.94709182 3.2147985
-1.2498349 -0.95675212 3.2302527
-1.1481159 -0.95895869 3.2380662
-1.0477151 -0.96000922 3.2376072
-0.95057929 -0.95970303 3.2510521
-0.84851265 -0.9587341 3.2497196
-0.75620753 -0.9609279 3.2641044
-0.64600712 -0.9743489 3.2690001
-0.5370363 -0.96242297 3.2626872
-0.44686568 -0.95812988 3.2601607
-0.36375755 -0.95440483 3.2610488
-0.25171846 -0.95452881 3.2609103
-0.14792249 -0.96198243 3.248806
-0.05043852 -0.96467954 3.2530291
0.042414181 -0.97156179 3.2690032
0.14981039 -0.96420717 3.2690034
0.24835914 -0.96487677 3.264395
0.35495713 -0.96118653 3.2680702
0.44847867 -0.95693487 3.2485442
0.55072963 -0.95408076 3.2411802
0.64532846 -0.95088518 3.2196836
0.74549901 -0.94682604 3.2334812
0.84622461 -0.93047881 3.2268033
0.94385529 -0.91246098 3.2345593
1.0547049 -0.90448809 3.241863
1.1509209 -0.90519041 3.231432
1.219389 -0.90511119 3.2502785
1.3682343 -0.93139464 3.2316661
1.4486719 -0.95333558 3.2140815
1.5402262 -0.94383109 3.2170088
1.6071486 -0.90698212 3.2333336
-1.7212281 -0.8911851 3.2481072
-1.6545982 -0.88535172 3.2534671
-1.5409594 -0.88927454 3.2467756
-1.4577017 -0.89081812 3.2427304
-1.3541694 -0.8982622 3.238286
0.89075261 -0.89871168 3.2504003
0.97467792 -0.89849478 3.223
1.0580766 -0.88944793 3.2395382
1.1601131 -0.88161945 3.2494354
1.2587516 -0.87461263 3.2482917
1.3403758 -0.8557328 3.2583303
1.4530447 -0.88369685 3.2454605
1.5583977 -0.89133471 3.2435861
1.6154537 -0.85098118 3.2383561
-1.729587 -0.74897677 3.2690003
1.1950483 -0.79956472 3.2690001
1.2604638 -0.77651364 3.2689989
1.3616483 -0.74855357 3.2690032
1.4028205 -0.72505331 3.2690005
1.5952086 -0.73012358 3.2412186
1.6090088 -0.75659066 3.2375221
1.3779398 -0.66617364 3.2690008
1.4042537 -0.64272606 3.2690003
1.5952531 -0.65677398 3.2292962
1.6070182 -0.65111154 3.2343826
1.298218 -0.58749384 3.2690001
1.3778 -0.58440763 3.2690001
1.4042534 -0.58462799 3.2690008
1.5756998 -0.54006237 3.262223
1.6125276 -0.55533969 3.2378085
1.2896205 -0.46426338 3.2690001
1.5933657 -0.41573089 3.2350528
1.6111543 -0.4475213 3.2289789
0.95894861 -0.33104056 3.2365453
1.0337111 -0.33196804 3.2268274
1.5896854 -0.34722167 3.2335405
1.6181687 -0.32896942 3.2122977
0.86615461 -0.22957477 3.2300489
0.92683488 -0.27304515 3.2227349
1.0529778 -0.2651974 3.2273185
1.1152899 -0.2233977 3.2254291
1.5876853 -0.24809064 3.2267523
1.60876 -0.25700977 3.2165093
0.78341407 -0.14094429 3.2396302
0.821329 -0.18224283 3.2290251
1.0623684 -0.16271693 3.2201335
1.1205369 -0.19774181 3.2690001
1.5852232 -0.14738663 3.2376733
1.6160378 -0.1494808 3.2143021
-1.7221907 -0.045929845 3.2190914
-1.6620972 -0.042393245 3.2230625
0.7871359 -0.082733557 3.2298892
0.86272496 -0.024611065 3.2260714
0.96749932 -0.065661602 3.2323003
1.0164775 -0.086186491 3.2354004
1.5908465 -0.055895638 3.2383142
1.6073537 -0.062535219 3.2339265
-1.5527397 0.059611581 3.2380002
0.88348496 0.068019032 3.2476053
0.93854105 0.027690478 3.2441556
1.0311748 0.019778477 3.223
1.5824507 0.051046811 3.2416148
0.8589443 0.14588398 3.2566071
0.90887237 0.19369934 3.2331672
1.070735 0.19174488 3.2260003
1.1233436 0.14940286 3.2155001
1.59168 0.15294507 3.2329574
1.6031417 0.15647393 3.2690008
-1.5754489 0.22993039 3.2380002
0.88944167 0.23983108 3.2408202
0.93486392 0.23791243 3.2362728
1.053426 0.26347098 3.2355909
1.591269 0.24897483 3.2385368
1.6054131 0.24340992 3.2597001
0.78389925 0.39623627 3.2621117
0.86122632 0.37598142 3.2406392
0.94565111 0.35314831 3.2279046
1.1511874 0.33982521 3.2080002
1.2122433 0.39261779 3.2690001
1.5878344 0.35390303 3.2333784
1.6004466 0.35865319 3.2156253
0.78249151 0.42032945 3.2537925
0.8304897 0.4423674 3.2322638
0.95582384 0.44377348 3.232513
1.0474913 0.46874723 3.2276487
1.1809572 0.45533767 3.2414002
1.2065116 0.40408108 3.2690001
1.5921282 0.46024808 3.2368858
1.608098 0.45023218 3.2324846
-1.5917883 0.57934344 3.2080002
0.83349162 0.54427826 3.2195389
1.0833211 0.55779064 3.2307501
1.1130068 0.59897751 3.247143
1.5899419 0.53933281 3.2362108
1.6114804 0.56131953 3.2283323
-1.6080933 0.66282398 3.2380002
0.83962965 0.63135111 3.2440619
1.0985563 0.60463172 3.2380002
1.1291343 0.6046887 3.2690001
1.5911728 0.62333328 3.2440829
1.6223166 0.65240818 3.2465892
1.5952561 0.71641964 3.2421336
1.631165 0.75188923 3.2486987
1.6413393 0.84285623 3.2494252
1.6625994 0.93139273 3.2689984
1.6585857 1.0520444 3.2567453
-1.6395981 1.1727486 3.2080002
1.6505529 1.1473683 3.2505546
1.6322082 1.2494742 3.2388179
-1.8028309 -1.3119466 3.3330002
-1.7739999 -1.3079855 3.30825
1.4551791 -1.3047431 3.3000002
1.5448619 -1.313422 3.3000002
-1.8028308 -1.294415 3.3330002
-1.7746572 -1.2533501 3.3000016
-0.61114621 -1.2288017 3.2999997
-0.59422225 -1.2208461 3.2999997
1.446087 -1.2956508 3.3
-0.71554703 -1.1510308 3.3000009
-0.68778408 -1.1536641 3.3000004
-0.56124204 -1.1383954 3.2999995
-0.46907926 -1.1148384 3.3000007
0.067623876 -1.1083806 3.2999995
-0.71866852 -1.051199 3.3015735
-0.65044761 -1.0311908 3.299999
-0.56828576 -1.0273292 3.2999997
-0.45376703 -1.0818371 3.3000011
-0.32442933 -1.0080038 3.3
-0.25835368 -1.0117612 3.3000011
-0.167794 -1.003871 3.3000002
-0.010125502 -1.0607667 3.3000002
0.032200344 -1.0533038 3.3000014
0.14291421 -1.011682 3.2999997
-1.8128624 -0.90788871 3.3570004
-1.76473 -0.905509 3.2999997
-1.6445113 -0.90717244 3.3495002
-1.559327 -0.905509 3.3000002
-1.4375881 -0.90641892 3.3511503
-1.340627 -0.91592741 3.353934
-1.2469362 -0.91521424 3.3411689
-1.1540688 -0.92418778 3.3364835
-1.0401797 -0.92047787 3.3358119
-0.9542467 -0.91815484 3.3482108
-0.85508299 -0.92238992 3.3472748
-0.74199939 -0.93342078 3.3332551
-0.65819317 -0.94531476 3.3385227
-0.55529904 -0.94901836 3.3354692
-0.45871595 -0.93199122 3.3532684
-0.33481464 -0.93672144 3.33672
-0.24423327 -0.94675964 3.3299322
-0.14984035 -0.93037993 3.3428044
-0.057027135 -0.93898445 3.3475938
0.05371004 -0.9480952 3.3412988
0.15117653 -0.94092178 3.3487258
0.25200021 -0.9279567 3.3658156
0.3464745 -0.92740071 3.3618643
0.45309359 -0.91861546 3.3618643
0.55092233 -0.91226035 3.3566437
0.6496076 -0.91522598 3.3590641
0.75100267 -0.91742921 3.3530562
0.84301966 -0.90916359 3.341917
0.9513194 -0.90780014 3.3439593
1.0354161 -0.90930617 3.3310261
1.1195909 -0.90791982 3.2999997
1.2324181 -0.905509 3.3000002
1.356817 -0.905509 3.3000002
1.4569138 -0.90913546 3.3133247
1.579246 -0.90950817 3.3208168
1.616208 -0.90777898 3.3101537
-1.8028308 -0.86196935 3.3330002
-1.7464628 -0.8463217 3.304709
-1.6491277 -0.84656715 3.3024371
-1.5547129 -0.84561586 3.3150659
-1.4568098 -0.85538298 3.3605313
-1.3645012 -0.86280811 3.3853343
-1.2594863 -0.84699476 3.3906198
-1.1367899 -0.87009859 3.3990006
-1.0224556 -0.88916612 3.3915637
-0.9624722 -0.87539607 3.3990009
-0.87927181 -0.85344678 3.3990016
-0.63767505 -0.89691681 3.3990002
-0.33509094 -0.88553941 3.3990002
0.23937647 -0.89228153 3.3990002
0.35320452 -0.86274868 3.3990016
0.48108405 -0.82029378 3.3990014
0.55545348 -0.84989166 3.3978417
0.64876103 -0.84939063 3.3869994
0.74830222 -0.85338217 3.391547
0.85271126 -0.85429227 3.3910854
0.95205837 -0.85101044 3.3798742
1.0492706 -0.85349894 3.3401992
1.1441445 -0.84388965 3.3093445
1.2481356 -0.84605438 3.2999921
1.3547797 -0.82972062 3.3000019
1.4571174 -0.85053885 3.314693
1.5535965 -0.851955 3.3254855
1.6193616 -0.84706044 3.3209589
-1.7455966 -0.74706489 3.3068635
-1.6519445 -0.75045085 3.3046415
-1.5502905 -0.74792737 3.3268871
-1.4837976 -0.75623375 3.3783388
-1.3640407 -0.76172143 3.3989995
-1.2227074 -0.77673179 3.3990014
-1.1885105 -0.76069796 3.3990006
-0.92288363 -0.77687389 3.3990006
0.25030234 -0.73898792 3.3990002
0.36353436 -0.71514964 3.3990002
0.4760215 -0.7474618 3.3990016
0.55770808 -0.73803073 3.396404
0.65061414 -0.74918288 3.3944664
0.73728281 -0.7467916 3.397028
0.85639817 -0.75502026 3.3989933
0.95169085 -0.74806404 3.3987532
1.0475589 -0.75537038 3.3741813
1.1421547 -0.75050509 3.3226697
1.2449704 -0.74337596 3.3044877
1.3398211 -0.74907553 3.2999935
1.4547005 -0.7490164 3.3101695
1.5511341 -0.7471 3.3081896
1.6116812 -0.75726622 3.3061881
-1.8028308 -0.62237108 3.3330002
-1.7440567 -0.6466375 3.3080926
-1.6536332 -0.64956856 3.3323631
-1.5521765 -0.65436274 3.3620806
-1.4551119 -0.66066241 3.3901329
0.45220324 -0.672144 3.3990018
0.57142067 -0.66206521 3.3990009
0.65381783 -0.64974701 3.3945792
0.73817384 -0.6604076 3.3968053
0.85769898 -0.65654689 3.398993
0.94765812 -0.64894944 3.3989913
1.0471772 -0.65165889 3.3752487
1.1471705 -0.65217268 3.349628
1.2470238 -0.65145665 3.3146269
1.3509024 -0.65080589 3.3002224
1.4555835 -0.64909476 3.3060069
1.5538577 -0.6510765 3.3120062
1.6130819 -0.64174908 3.3100023
-1.8028309 -0.52010357 3.3330002
-1.7446934 -0.55258346 3.3174829
-1.6491683 -0.5476777 3.3594809
-1.5504789 -0.55172676 3.390579
-1.4778231 -0.58257234 3.370667
-1.3945417 -0.56020051 3.3990002
0.56455833 -0.55770278 3.3989935
0.6498841 -0.55306983 3.3989913
0.70918989 -0.55126119 3.3990016
0.88574255 -0.58776361 3.3990002
0.95971233 -0.56133085 3.3989925
1.0541962 -0.5521968 3.3933229
1.1487092 -0.55047786 3.3624618
1.2426493 -0.55260044 3.3286719
1.3478968 -0.54919809 3.3150318
1.4569193 -0.54890895 3.323477
1.5466948 -0.54850554 3.309813
1.6183619 -0.55018902 3.3077869
-1.8028309 -0.45095122 3.3330002
-1.7442672 -0.45133531 3.3252802
-1.6467745 -0.44852102 3.3637872
-1.5558293 -0.45971519 3.3983388
0.57807922 -0.46484724 3.3990002
0.66282314 -0.44991565 3.3989933
0.70919001 -0.44994828 3.3990016
0.88499761 -0.43504936 3.3990002
0.9367376 -0.4297671 3.3990016
1.0579237 -0.44938457 3.3989916
1.1501634 -0.44990394 3.3812578
1.2478455 -0.44969213 3.3374667
1.3524736 -0.44721681 3.3151171
1.458294 -0.44967112 3.329097
1.5544347 -0.44713432 3.3239141
1.6124984 -0.46177813 3.3128078
-1.8124766 -0.3437539 3.3628047
-1.7480354 -0.35183576 3.3545494
-1.6527363 -0.34747288 3.385525
-1.5527402 -0.35160246 3.3989916
0.55424094 -0.36055458 3.3990002
0.67641222 -0.34050137 3.3990018
0.70878118 -0.34805113 3.3990016
0.89393699 -0.30095878 3.3990002
0.96348202 -0.34939831 3.3816407
1.0644836 -0.36965522 3.3640347
1.1565766 -0.34851933 3.3884807
1.2472173 -0.35008004 3.3522346
1.3491571 -0.3485305 3.3334677
1.4533675 -0.34662038 3.3373594
1.5556114 -0.34820053 3.3306839
1.605019 -0.35017738 3.3264
-1.8028309 -0.24310458 3.3330002
-1.7428187 -0.24919818 3.348398
-1.6489643 -0.25436142 3.3915887
-1.5686878 -0.24634553 3.3990014
0.57509947 -0.29201946 3.3990002
0.66156566 -0.26143736 3.3990016
0.7098521 -0.25096455 3.3990009
0.85777771 -0.24644691 3.3651545
0.91469681 -0.28688157 3.3583231
1.0870945 -0.28237289 3.3380003
1.160321 -0.2659348 3.3795795
1.2484871 -0.25245765 3.3882055
1.3472823 -0.248942 3.3450584
1.4538292 -0.24811792 3.3347147
1.5516626 -0.24849388 3.3234801
1.6065615 -0.25343063 3.3234479
-1.8094909 -0.13347976 3.3685615
-1.7528225 -0.15288194 3.3777983
-1.6535847 -0.15307471 3.3976436
-1.5736797 -0.14075129 3.3990014
0.69154054 -0.13271527 3.3990004
0.769517 -0.14625748 3.3640509
0.81324875 -0.19433336 3.3242104
1.0965281 -0.14300679 3.3396003
1.1641407 -0.14863117 3.3974414
1.2489384 -0.15289904 3.3946846
1.3485881 -0.14898922 3.3577178
1.4568419 -0.15389752 3.3583317
1.5523307 -0.14749621 3.3393996
-1.8074805 -0.074414253 3.3475456
-1.7527494 -0.074027225 3.3675535
-1.6478231 -0.064450935 3.3902676
-1.5515473 -0.060225353 3.3990016
-1.0423306 -0.04171706 3.3990016
0.58403885 -0.089393705 3.3990002
0.69131124 -0.029797899 3.3990002
0.77006906 -0.072393559 3.3574419
0.85007983 -0.037263475 3.3594477
0.97370571 -0.022705439 3.3788958
1.046494 -0.032930735 3.3822389
1.1541932 -0.088823073 3.3990014
1.254636 -0.054203324 3.3989916
1.3499444 -0.05167155 3.384165
1.4538194 -0.047998592 3.3682318
1.553225 -0.05042693 3.3337669
1.6073507 -0.029369738 3.3220003
-1.6205186 0.054881085 3.3952229
-1.5677004 0.057167832 3.3990016
0.87241542 0.064711235 3.3409398
0.93973351 0.026635505 3.3618701
1.0447189 0.0083997268 3.3654394
1.1431381 0.03091847 3.3938496
1.2627513 0.055179093 3.3982379
1.3506352 0.0513836 3.395251
1.4489639 0.048083186 3.3815887
1.5507486 0.05005911 3.3452954
1.6048772 0.049658347 3.3165002
-1.6342019 0.11706319 3.3990004
0.78152013 0.17386129 3.3418584
0.82293308 0.14959316 3.3396733
1.096447 0.199617 3.3000002
1.1610438 0.17804177 3.3855014
1.2574418 0.13924791 3.3984053
1.3578387 0.14789248 3.3973658
1.4444782 0.14792444 3.3951375
1.5577919 0.15080722 3.3623083
1.6066463 0.14559948 3.3169239
-1.6465985 0.25107923 3.3964829
0.78950626 0.20592511 3.3686368
0.87435257 0.23204848 3.3298185
0.95185286 0.25747776 3.3495786
1.0535423 0.25596884 3.3664529
1.1246868 0.23920445 3.3749695
1.2605808 0.26552525 3.3989992
1.3534396 0.25331247 3.3966672
1.4479817 0.25055307 3.3981588
1.5611175 0.25184646 3.3639293
1.6054345 0.25003007 3.3194118
-1.6562891 0.34763709 3.3956001
0.78564841 0.39633703 3.3292999
0.84922332 0.35982305 3.3271441
0.95064056 0.33357781 3.3555098
1.0135148 0.33144227 3.3727779
1.1762414 0.31504551 3.3905001
1.256474 0.35230035 3.3855009
1.3575602 0.34811625 3.3989918
1.4420688 0.34621727 3.3922205
1.5597039 0.34631854 3.3724406
1.6045128 0.35540515 3.3419449
-1.6599865 0.40979838 3.3922002
0.7796753 0.43669075 3.3303978
0.81576449 0.48321593 3.3185635
0.97805154 0.43490696 3.3299341
1.0584387 0.46654218 3.3718133
1.1379795 0.48396841 3.3461502
1.2536513 0.45203307 3.3662891
1.3601247 0.44756258 3.3911467
1.4491426 0.44582742 3.3831842
1.5719045 0.4436796 3.3664875
1.6072326 0.45054144 3.3269286
0.84933776 0.52714115 3.3613253
1.0869852 0.51214427 3.339
1.1259679 0.54558092 3.3393464
1.2644167 0.53339732 3.393214
1.3489845 0.55612457 3.3956528
1.4379724 0.54648423 3.3971052
1.5620337 0.5523175 3.37129
1.6065838 0.55233711 3.3490143
-1.6757016 0.62726474 3.3930006
0.84830129 0.6394636 3.3751214
1.1613822 0.61150628 3.3843336
1.2786162 0.65497255 3.3947515
1.3535267 0.64369142 3.3989942
1.4344327 0.65257412 3.3989942
1.5846188 0.64563352 3.3541811
1.6201264 0.66825461 3.3248513
-1.6896429 0.75830662 3.3952224
1.3730046 0.75720596 3.3990011
1.4335436 0.7232945 3.3990016
1.5805879 0.7265808 3.3562913
1.6103516 0.7552045 3.3457444
-1.6895409 0.8015635 3.3990002
1.3532132 0.85442245 3.3990011
1.4493245 0.8299861 3.3990014
1.5952834 0.84985322 3.3777502
1.6215 0.85104543 3.3440433
1.2557065 0.96135634 3.3377144
1.6481016 0.95352954 3.3377376
1.6539419 1.047606 3.3338161
-1.719713 1.1928275 3.3763337
-1.6460907 1.1947433 3.3650002
-1.5720521 1.1506248 3.3990004
1.6568774 1.152522 3.3415425
-1.7206107 1.2472616 3.3966565
-1.6736685 1.229303 3.393573
1.6409398 1.2532347 3.338763
1.6417302 1.3104643 3.3456528
-1.4506257 -0.90889823 3.4330001
-1.3428822 -0.91311169 3.4329998
-1.2345365 -0.91551942 3.4329991
-1.1440306 -0.92238551 3.4359787
-1.0820576 -0.91784942 3.4340599
-0.94395113 -0.91297001 3.4329991
-0.84779871 -0.91563392 3.4329991
-0.74305385 -0.91801763 3.456785
-0.6403957 -0.92648304 3.455122
-0.55490452 -0.91963875 3.4549522
-0.44752526 -0.91549766 3.4530532
-0.34569716 -0.91798878 3.4540002
-0.25022393 -0.92379797 3.452409
-0.15217032 -0.92026258 3.4565306
-0.05009323 -0.92199999 3.4474132
0.054641079 -0.92747211 3.4572601
0.14620921 -0.92070347 3.4550357
0.2436406 -0.91633111 3.4419088
0.33924994 -0.91294205 3.4454577
0.44898316 -0.90841103 3.4415359
0.51206136 -0.91018802 3.4330006
-1.4495896 -0.83622414 3.4329987
-1.3400731 -0.84393072 3.4330063
-1.2468674 -0.85524565 3.4339776
-1.1491261 -0.85093516 3.4335549
-1.0523021 -0.84730482 3.4329965
-0.95283818 -0.85096073 3.432997
-0.84612292 -0.84950703 3.4331391
-0.75234026 -0.85140562 3.4578476
-0.65026951 -0.85322374 3.4638457
-0.54893887 -0.8510251 3.4619591
-0.44979981 -0.85197926 3.4674659
-0.34986344 -0.8507607 3.4624033
-0.25074837 -0.85310209 3.4580002
-0.14845471 -0.85156494 3.4634609
-0.05465408 -0.85091919 3.4558444
0.061751761 -0.84392232 3.4667797
0.14286323 -0.85623538 3.4649715
0.24899197 -0.85276222 3.4581544
0.3469266 -0.84877664 3.4424057
0.44173181 -0.85640162 3.4396086
0.5266794 -0.84711277 3.4329991
0.73735118 -0.84433734 3.4329991
-1.507808 -0.78751111 3.4330001
-1.4417355 -0.74786425 3.4329991
-1.3412279 -0.7423479 3.4330001
-1.2528042 -0.74540007 3.4329972
-1.1488203 -0.74905145 3.4329963
-1.0497546 -0.74830049 3.4339418
-0.9516359 -0.74624932 3.4353557
-0.85236162 -0.74896204 3.435513
-0.75185913 -0.75137419 3.458703
-0.64864635 -0.7545805 3.4679954
-0.54602647 -0.75233167 3.4680016
-0.4536697 -0.76911545 3.4679966
-0.3448723 -0.7536177 3.4680023
-0.24631156 -0.75734532 3.4667733
-0.1488018 -0.74970037 3.4630208
-0.05767091 -0.75125283 3.4629807
0.055326521 -0.7530039 3.4674265
0.14126673 -0.74991733 3.4665952
0.24927206 -0.74723095 3.4481504
0.34808055 -0.75026459 3.4418757
0.44414082 -0.75223839 3.436887
0.54311436 -0.76958275 3.4341683
0.63760459 -0.74595004 3.4330006
0.77366489 -0.75415224 3.4330015
0.83679408 -0.74099267 3.4330046
0.90862465 -0.74172872 3.4330001
-1.506978 -0.64913875 3.4329991
-1.4502791 -0.64160979 3.4344444
-1.3509231 -0.64992177 3.4380493
-1.2491578 -0.65079468 3.4404192
-1.1485822 -0.65077013 3.4358323
-1.0519489 -0.64874107 3.4453464
-0.94794673 -0.64923406 3.4480169
-0.84801745 -0.64937496 3.4499326
-0.76106906 -0.65581292 3.4609315
-0.66667759 -0.67464232 3.4680014
-0.56772763 -0.67163342 3.4680014
-0.43651387 -0.66523641 3.4680014
-0.34011474 -0.65434784 3.4679961
-0.25801551 -0.66243464 3.4679947
-0.14633374 -0.65030915 3.4680009
-0.055298924 -0.65062678 3.4628155
0.046902962 -0.67042601 3.4679976
0.14267188 -0.66260445 3.4669266
0.25682777 -0.65042096 3.4584093
0.34977114 -0.6526711 3.4541056
0.44772986 -0.64366555 3.4397054
0.54419196 -0.64725137 3.4341898
0.61817116 -0.67715931 3.4329998
0.76236373 -0.64358157 3.4334309
0.83436018 -0.6349256 3.4354281
0.96945125 -0.65284163 3.4329991
1.0052054 -0.66512096 3.4330003
-1.5078077 -0.55075628 3.4329991
-1.4505482 -0.55092567 3.4338975
-1.3504181 -0.55058998 3.4400454
-1.2502736 -0.55133027 3.4472818
-1.1515518 -0.55086488 3.4496248
-1.0510167 -0.55039841 3.4608467
-0.94949383 -0.5483095 3.4641001
-0.85353321 -0.5523625 3.4633448
-0.78767949 -0.55423468 3.4680016
-0.69318384 -0.59893513 3.4680002
-0.53726101 -0.56201756 3.4679997
-0.44692117 -0.59285456 3.4679999
-0.33861119 -0.5932346 3.4679995
-0.23220137 -0.57233268 3.4679995
-0.1555658 -0.57643086 3.4679968
-0.055853195 -0.55943108 3.4679959
0.036483359 -0.59893513 3.4680002
0.19595988 -0.5525018 3.4679999
0.25666395 -0.55288315 3.4666677
0.3495298 -0.5518387 3.4641807
0.45036712 -0.55291903 3.4475718
0.53354287 -0.53814137 3.4347308
0.64235264 -0.51751989 3.4329994
0.76455677 -0.55083334 3.4335148
0.85174578 -0.55077446 3.4331167
0.93656534 -0.52974153 3.4330041
1.0463365 -0.55677545 3.4330003
-1.6342109 -0.40027636 3.4330001
-1.5303375 -0.43497953 3.4396944
-1.4512872 -0.45039761 3.4453986
-1.3528237 -0.44868782 3.4501326
-1.2490556 -0.45092335 3.4528613
-1.1495641 -0.45248953 3.4593749
-1.0482172 -0.44929764 3.4680016
-0.9493317 -0.45568252 3.4680016
-0.85127848 -0.45205548 3.4680033
-0.79254013 -0.45409611 3.4680011
-0.051250432 -0.46889779 3.4680014
0.045025099 -0.47124347 3.4679999
0.17268795 -0.4354898 3.4680011
0.24989159 -0.44771776 3.4679997
0.35013223 -0.45432842 3.4655597
0.4532114 -0.45265734 3.4568849
0.54974067 -0.45052335 3.4461696
0.62510413 -0.44486967 3.4369607
0.76382506 -0.4494468 3.4362156
0.85000604 -0.44855234 3.4357636
0.95383829 -0.45041966 3.4329979
1.0215431 -0.45952243 3.4329989
-1.6352143 -0.37178555 3.4329994
-1.5202622 -0.33737621 3.4522307
-1.4508555 -0.35223714 3.4604936
-1.3498517 -0.34896302 3.4654765
-1.2489275 -0.34946278 3.4663088
-1.1507567 -0.34989154 3.4680042
-1.0486349 -0.35960314 3.4679992
-0.94821483 -0.35156479 3.4680042
-0.86455977 -0.37891501 3.4680007
-0.79472917 -0.39584446 3.4680002
-0.12537535 -0.32762623 3.4680009
-0.045604199 -0.34125441 3.4680011
0.17807354 -0.38350973 3.4680007
0.27073374 -0.3385947 3.4642053
0.35025597 -0.35195702 3.4661684
0.45038515 -0.34996879 3.4616413
0.54908139 -0.34762627 3.4448774
0.64327371 -0.35296074 3.4393473
0.75981694 -0.35002381 3.443325
0.85051084 -0.34957871 3.4402897
0.93550926 -0.35632038 3.4330058
1.089474 -0.38823795 3.4330001
-1.6335164 -0.23058139 3.4329991
-1.5459872 -0.24838464 3.4409356
-1.4506981 -0.2523433 3.4638228
-1.3498366 -0.24966149 3.4680042
-1.2505636 -0.25030702 3.4669437
-1.1400664 -0.25834662 3.4679961
-1.051465 -0.26056933 3.4679995
-0.94758612 -0.27666551 3.4680011
-0.86837125 -0.24950559 3.4680011
-0.10032924 -0.27058491 3.4680002
-0.059988324 -0.26816562 3.4679985
0.18285112 -0.24061644 3.4679997
0.25430256 -0.24744403 3.4657893
0.34998035 -0.24913998 3.4680045
0.44699046 -0.25071055 3.4579589
0.55248398 -0.24938461 3.4571273
0.64584017 -0.24543466 3.4360919
0.75347692 -0.25103495 3.4517848
0.83217627 -0.26352724 3.4456224
1.1707331 -0.27688289 3.4330001
-1.7049365 -0.13392705 3.4330001
-1.6500959 -0.15258436 3.4330056
-1.548447 -0.15190072 3.4379976
-1.4563087 -0.15365455 3.4624045
-1.3452561 -0.14853536 3.4680023
-1.2518735 -0.14789259 3.4680049
-1.1527866 -0.15276672 3.4680014
-1.0536042 -0.14465849 3.4679985
-0.97733313 -0.10313566 3.4679997
-0.02432224 -0.12769176 3.4680002
0.16393191 -0.16551283 3.4680011
0.25400174 -0.15802556 3.4679992
0.3597573 -0.15837732 3.4654624
0.45043388 -0.15028754 3.4664006
0.55151552 -0.15255016 3.4516509
0.64989722 -0.1503261 3.4433081
0.74557924 -0.15204826 3.4471424
1.1591578 -0.1417983 3.4329991
1.200829 -0.15047982 3.4330001
1.3332514 -0.12339346 3.4330001
1.4867408 -0.13543186 3.4330003
-1.7335277 -0.099316686 3.4330001
-1.6179706 -0.035263386 3.4329989
-1.545954 -0.04862193 3.4416146
-1.4511863 -0.045840893 3.4667575
-1.3448178 -0.048798025 3.4679978
-1.2587507 -0.044196401 3.4680007
-1.1782023 -0.053173859 3.4680009
-1.0423174 -0.054313876 3.4535487
-0.97118193 -0.047879625 3.4636557
0.1976182 -0.091208398 3.4680002
0.26403663 -0.047475137 3.4679997
0.34704566 -0.032626279 3.4679949
0.44816986 -0.047462936 3.4680028
0.55448526 -0.054693818 3.4630513
0.65320355 -0.050497685 3.4584219
0.74768502 -0.049292963 3.4501715
0.84968656 -0.022404321 3.4557679
0.98784232 -0.0099548195 3.4329998
1.0734094 -0.047489099 3.4329991
1.1483289 -0.044392642 3.4334724
1.2158359 -0.037145849 3.4329989
1.4867408 -0.039124757 3.4330001
-1.6238761 0.04860783 3.4330034
-1.5440445 0.049970325 3.4445381
-1.4492495 0.048347846 3.4680035
-1.3568306 0.049631286 3.4666755
-1.2700219 0.038337193 3.4679956
-1.1604085 0.059517339 3.4680014
-1.0497226 0.044449776 3.464905
-0.96832877 0.031202862 3.4680011
0.13985288 0.072966725 3.4680002
0.36053535 0.019290052 3.4680014
0.431768 0.035180394 3.4680016
0.55166495 0.049516942 3.4679961
0.65444118 0.039677549 3.4612684
0.7244432 0.045375381 3.4628236
0.8646636 0.03347373 3.4579635
0.95657659 0.023284778 3.4329991
1.0021958 0.018057581 3.4330003
1.1759673 0.01962781 3.4329991
1.2298576 0.04362113 3.4345052
1.3332514 0.081259109 3.4330001
-1.6304386 0.15304939 3.4368944
-1.5531386 0.14930741 3.4518008
-1.4680566 0.13635795 3.4679968
-1.3649122 0.14428304 3.4680014
-1.2448566 0.12907371 3.4679999
-1.1555016 0.15068039 3.4679976
-1.0732188 0.10336952 3.4680002
0.34659195 0.152014 3.4680002
0.49556562 0.13377231 3.4680002
0.54255176 0.1500793 3.4680011
0.6779024 0.12825182 3.4680011
0.7437185 0.13908134 3.4645758
0.82060492 0.11103654 3.4505
1.1812668 0.18689597 3.4329994
1.2481028 0.16085139 3.4330053
1.3230522 0.16678187 3.4329989
1.4889652 0.16866827 3.4329994
1.5141009 0.1764718 3.4329994
-1.63071 0.2532126 3.4405026
-1.5579814 0.2436152 3.4557245
-1.4472625 0.25487185 3.4679976
-1.3545246 0.23506162 3.4679995
-1.1553063 0.20369875 3.4680002
0.46552047 0.25055486 3.4679995
0.57596409 0.20640121 3.4680002
0.65442032 0.28350613 3.4680002
0.78420377 0.21099326 3.4505002
0.86058533 0.23043293 3.447583
0.94235492 0.27303636 3.4439998
1.017867 0.26117638 3.4540002
1.1584471 0.25789294 3.4365904
1.2416093 0.24291311 3.4329996
1.3250433 0.23201254 3.4329989
1.4887869 0.24883342 3.4329991
1.5254024 0.23660059 3.4329994
-1.6407402 0.35298038 3.4501088
-1.5692855 0.3326453 3.4662304
-1.4380525 0.30098772 3.4680002
0.79503316 0.39219612 3.4680002
0.83844513 0.36975047 3.4593856
0.94252384 0.32179424 3.4494705
1.0160775 0.31448346 3.4572313
1.1819959 0.30755231 3.4395621
1.2589922 0.32649049 3.4330013
1.3157953 0.3470495 3.4329989
1.4869845 0.35781667 3.4329991
1.5451272 0.3794671 3.4329991
1.604115 0.37619957 3.4330001
-1.7116777 0.49556562 3.4680002
-1.6495655 0.44922936 3.4544127
-1.5794537 0.44742104 3.4656672
0.46690017 0.4408406 3.4680004
0.78434277 0.42788333 3.4461246
0.81107986 0.44813037 3.4430003
1.0176859 0.43283296 3.4446666
1.1767523 0.4911662 3.4330003
1.28715 0.46019459 3.4329991
1.3374813 0.45661843 3.4330039
1.4873428 0.46227407 3.4330003
1.547226 0.47191957 3.4330001
-1.7086375 0.51684761 3.4680002
-1.654017 0.55466473 3.4643509
0.86371297 0.55747688 3.4434049
1.1757638 0.55908066 3.4419169
1.2430463 0.55478984 3.4394863
1.3514388 0.54023361 3.4330058
1.4661533 0.56580073 3.4348414
1.5499271 0.54964477 3.4336734
1.6060301 0.56060582 3.4329994
-1.7058234 0.6747517 3.45925
-1.6527703 0.65266722 3.4565146
-1.5690913 0.65896422 3.4650555
0.84298939 0.64540637 3.4446669
1.1778468 0.61044693 3.4425457
1.2556614 0.62873101 3.4432416
1.3553047 0.65806383 3.4330041
1.4731098 0.63989341 3.4329989
1.5480151 0.65041673 3.4343383
1.6053187 0.6450569 3.4329998
-1.7112819 0.75731373 3.4520907
-1.6474882 0.75001967 3.4506769
-1.5662774 0.74628478 3.4625423
0.83043122 0.70159221 3.4446666
1.3474977 0.74372005 3.4389195
1.4552329 0.75392944 3.4357505
1.5486916 0.7555908 3.4390137
1.6084052 0.76256794 3.4353328
-1.7165366 0.86257267 3.4568415
-1.6464694 0.84560668 3.449559
-1.5736061 0.85494787 3.4680014
-1.2057751 0.84580594 3.4680002
-1.1837199 0.86907613 3.4621668
1.2971362 0.89685977 3.4330001
1.3544358 0.85111892 3.4369013
1.4434487 0.85268158 3.4345286
1.5526258 0.84427923 3.4517541
1.614918 0.85189849 3.4398844
-1.7219023 0.94756567 3.4564536
-1.6539083 0.94606543 3.4603307
-1.58125 0.96118152 3.4656982
1.2981995 0.96376878 3.4680002
1.3531792 0.95190549 3.4385092
1.4438443 0.94623655 3.4422493
1.5357213 0.94123745 3.4679968
1.6246401 0.95323044 3.445641
-1.7301284 1.0392653 3.4615698
-1.6484095 1.0568784 3.4648995
-1.5651748 1.0305693 3.4665825
1.3528605 1.0362471 3.457334
1.4522887 1.0454307 3.4642313
1.5747522 1.031781 3.4680004
1.6382097 1.0493538 3.4571199
-1.7271456 1.1353216 3.4618239
-1.6591243 1.1427112 3.4679997
-1.5768809 1.160149 3.4620006
1.3889526 1.1281719 3.4529998
1.4422365 1.1325411 3.4622355
1.566342 1.1680357 3.4489088
1.6530321 1.1542276 3.4475632
-1.7284533 1.24053 3.4436331
-1.6703261 1.2309251 3.4330001
1.5717863 1.2116334 3.4462428
