# .PCD v0.7 - Point Cloud Data file format
VERSION 0.7
FIELDS x y z
SIZE 4 4 4
TYPE F F F
COUNT 1 1 1
WIDTH 1519
HEIGHT 1
VIEWPOINT 0 0 0 1 0 0 0
POINTS 1519
DATA ascii
-1.3839533 0.11246055 2.618
-1.3793631 0.11246055 2.618
-1.3747729 0.11246055 2.618
-1.3701826 0.11246055 2.618
-1.3655925 0.11246055 2.618
-1.3610022 0.11246055 2.618
-1.3564119 0.11246055 2.618
-1.3518218 0.11246055 2.618
-1.3472315 0.11246055 2.618
-1.3426412 0.11246055 2.618
-1.3380511 0.11246055 2.618
-1.3334608 0.11246055 2.618
-1.33953 0.11336264 2.6390002
-1.3450197 0.11422177 2.6590002
-1.3403575 0.11422177 2.6590002
-1.3356955 0.11422177 2.6590002
-1.3310333 0.11422177 2.6590002
-1.3263712 0.11422177 2.6590002
-1.3217092 0.11422177 2.6590002
-1.317047 0.11422177 2.6590002
-1.3123848 0.11422177 2.6590002
-1.3077228 0.11422177 2.6590002
-1.3030607 0.11422177 2.6590002
-1.2983986 0.11422177 2.6590002
-1.2937365 0.11422177 2.6590002
-1.2890743 0.11422177 2.6590002
-1.2844123 0.11422177 2.6590002
-1.2797501 0.11422177 2.6590002
-1.275088 0.11422177 2.6590002
-1.2704259 0.11422177 2.6590002
-1.2657638 0.11422177 2.6590002
-1.2611016 0.11422177 2.6590002
-1.2663625 0.11512387 2.6800001
-1.2517774 0.11422177 2.6590002
-1.2471153 0.11422177 2.6590002
-1.2424532 0.11422177 2.6590002
-1.2377911 0.11422177 2.6590002
-1.233129 0.11422177 2.6590002
-1.2284669 0.11422177 2.6590002
-1.2238047 0.11422177 2.6590002
-1.2191427 0.11422177 2.6590002
-1.2144805 0.11422177 2.6590002
-1.2193732 0.11512387 2.6800001
-1.2146742 0.11512387 2.6800001
-1.2099754 0.11512387 2.6800001
-1.2052764 0.11512387 2.6800001
-1.2005775 0.11512387 2.6800001
-1.1958785 0.11512387 2.6800001
-1.1911796 0.11512387 2.6800001
-1.1957777 0.11602595 2.7010002
-1.1910419 0.11602595 2.7010002
-1.1863062 0.11602595 2.7010002
-1.1815704 0.11602595 2.7010002
-1.1768347 0.11602595 2.7010002
-1.172099 0.11602595 2.7010002
-1.1673632 0.11602595 2.7010002
-1.1626275 0.11602595 2.7010002
-1.1673229 0.116971 2.723
-1.1625485 0.116971 2.723
-1.1577742 0.116971 2.723
-1.1529999 0.116971 2.723
-1.1482255 0.116971 2.723
-1.1434512 0.116971 2.723
-1.1386769 0.116971 2.723
-1.1339025 0.116971 2.723
-1.1291282 0.116971 2.723
-1.1243539 0.116971 2.723
-1.1105342 0.11602595 2.7010002
-1.1057984 0.11602595 2.7010002
-1.1100309 0.116971 2.723
-1.1052566 0.116971 2.723
-1.1004823 0.116971 2.723
-1.095708 0.116971 2.723
-1.0909337 0.116971 2.723
-1.0861593 0.116971 2.723
-1.0726482 0.11602595 2.7010002
-1.0679123 0.11602595 2.7010002
-1.0631766 0.11602595 2.7010002
-1.0584408 0.11602595 2.7010002
-1.0537051 0.11602595 2.7010002
-1.0575134 0.116971 2.723
-1.052739 0.116971 2.723
-1.0479647 0.116971 2.723
-1.0431904 0.116971 2.723
-1.038416 0.116971 2.723
-1.0416132 0.11787309 2.7440002
-1.0368021 0.11787309 2.7440002
-1.031991 0.11787309 2.7440002
-1.0357896 0.11886109 2.7670002
-1.030938 0.11886109 2.7670002
-1.0260866 0.11886109 2.7670002
-1.0212351 0.11886109 2.7670002
-1.0079352 0.11787309 2.7440002
-1.0031241 0.11787309 2.7440002
-0.99831295 0.11787309 2.7440002
-0.99350178 0.11787309 2.7440002
-0.98869061 0.11787309 2.7440002
-0.98387951 0.11787309 2.7440002
-0.97906834 0.11787309 2.7440002
-0.97425717 0.11787309 2.7440002
-0.96944606 0.11787309 2.7440002
-0.9646349 0.11787309 2.7440002
-0.96786892 0.11886109 2.7670002
-0.96301746 0.11886109 2.7670002
-0.96578419 0.11980614 2.789
-0.96089417 0.11980614 2.789
-0.95600414 0.11980614 2.789
-0.95111406 0.11980614 2.789
-0.94622403 0.11980614 2.789
-0.94133395 0.11980614 2.789
-0.93644392 0.11980614 2.789
-0.9315539 0.11980614 2.789
-0.42921862 0.071780592 1.6710001
-0.42628881 0.071780592 1.6710001
-0.42133212 0.071436934 1.6630001
-0.41841635 0.071436934 1.6630001
-0.41550055 0.071436934 1.6630001
-0.41258475 0.071436934 1.6630001
-0.40769821 0.071093284 1.6550001
-0.40479645 0.071093284 1.6550001
-0.40189469 0.071093284 1.6550001
-0.39899293 0.071093284 1.6550001
-0.39800578 0.071436934 1.6630001
-0.39508998 0.071436934 1.6630001
-0.44169709 0.080457836 1.8730001
-0.43841311 0.080457836 1.8730001
-0.43512911 0.080457836 1.8730001
-0.43184513 0.080457836 1.8730001
-0.43084922 0.0808874 1.8830001
-0.43004534 0.081359923 1.8940001
-0.40258989 0.092614576 2.1560001
-0.3988097 0.092614576 2.1560001
-0.39502952 0.092614576 2.1560001
-0.38889021 0.092056133 2.1430001
-0.38261679 0.091454744 2.1290002
-0.37888393 0.091454744 2.1290002
-0.37286037 0.090896308 2.1160002
-0.36915031 0.090896308 2.1160002
-0.36544025 0.090896308 2.1160002
-0.35950786 0.090337873 2.1030002
-0.3558206 0.090337873 2.1030002
-0.34995657 0.089779429 2.0900002
-0.34430382 0.089263953 2.0780001
-0.33852923 0.088705517 2.0650001
-0.33296239 0.088190034 2.0530002
-0.32936278 0.088190034 2.0530002
-0.3237004 0.087631598 2.0400002
-0.31824052 0.087116122 2.0280001
-0.31282273 0.086600639 2.016
-0.309288 0.086600639 2.016
-0.30408499 0.086128116 2.0050001
-0.30056953 0.086128116 2.0050001
-0.29527622 0.08561264 1.9930001
-0.29178184 0.08561264 1.9930001
-0.22823754 0.080457836 1.8730001
-0.22495355 0.080457836 1.8730001
-0.22048604 0.080028273 1.863
-0.21605362 0.079598702 1.853
-0.21165626 0.079169139 1.8430001
-0.20842487 0.079169139 1.8430001
-0.20519347 0.079169139 1.8430001
-0.20086625 0.078739569 1.8330001
-0.19765238 0.078739569 1.8330001
-0.19443853 0.078739569 1.8330001
-0.19018143 0.078310005 1.8230001
-0.18595941 0.077880435 1.8130001
-0.18187326 0.077493824 1.8040001
-0.17871025 0.077493824 1.8040001
-0.17554724 0.077493824 1.8040001
-0.17142867 0.077064261 1.794
-0.16828318 0.077064261 1.794
-0.16513769 0.077064261 1.794
-0.16199222 0.077064261 1.794
-0.15804985 0.07667765 1.7850001
-0.15413904 0.07629104 1.7760001
-0.15102512 0.07629104 1.7760001
-0.14707837 0.075861476 1.766
-0.14398198 0.075861476 1.766
-0.14088559 0.075861476 1.766
-0.1377892 0.075861476 1.766
-0.13469282 0.075861476 1.766
-0.1267774 0.085097156 1.9810001
-0.12261937 0.084624633 1.9700001
-0.1191653 0.084624633 1.9700001
-0.11571123 0.084624633 1.9700001
-0.11225717 0.084624633 1.9700001
-0.10819557 0.08415211 1.9590001
-0.10476079 0.08415211 1.9590001
-0.065473847 0.082262017 1.9150001
-0.062116217 0.082262017 1.9150001
-0.058758583 0.082262017 1.9150001
-0.055400949 0.082262017 1.9150001
-0.052043315 0.082262017 1.9150001
-0.048685685 0.082262017 1.9150001
-0.045328051 0.082262017 1.9150001
-0.063733667 0.12491798 2.9080002
-0.058634974 0.12491798 2.9080002
-0.053996529 0.1259919 2.9330001
-0.048854005 0.1259919 2.9330001
-0.043711476 0.1259919 2.9330001
-0.038568951 0.1259919 2.9330001
-0.033426423 0.1259919 2.9330001
-0.028283896 0.1259919 2.9330001
-0.02333862 0.12706582 2.9580002
-0.018152259 0.12706582 2.9580002
-0.0129659 0.12706582 2.9580002
-0.0077137901 0.1259919 2.9330001
-0.0025712634 0.1259919 2.9330001
0.0025712634 0.1259919 2.9330001
0.0077137901 0.1259919 2.9330001
0.012856317 0.1259919 2.9330001
0.017998843 0.1259919 2.9330001
0.17759074 0.11602595 2.7010002
0.1823265 0.11602595 2.7010002
0.18706225 0.11602595 2.7010002
0.191798 0.11602595 2.7010002
0.19813456 0.116971 2.723
0.20126952 0.11602595 2.7010002
0.20600528 0.11602595 2.7010002
0.21074103 0.11602595 2.7010002
0.21547678 0.11602595 2.7010002
0.22021253 0.11602595 2.7010002
0.22494829 0.11602595 2.7010002
0.22968404 0.11602595 2.7010002
0.23441979 0.11602595 2.7010002
0.23915555 0.11602595 2.7010002
0.24199507 0.11512387 2.6800001
0.246694 0.11512387 2.6800001
0.25139293 0.11512387 2.6800001
0.25609186 0.11512387 2.6800001
0.2607908 0.11512387 2.6800001
0.26548973 0.11512387 2.6800001
0.27018866 0.11512387 2.6800001
0.27273363 0.11422177 2.6590002
0.27739576 0.11422177 2.6590002
0.28205785 0.11422177 2.6590002
0.28671998 0.11422177 2.6590002
0.29138207 0.11422177 2.6590002
0.2960442 0.11422177 2.6590002
0.3007063 0.11422177 2.6590002
0.30536842 0.11422177 2.6590002
0.31003052 0.11422177 2.6590002
0.31469265 0.11422177 2.6590002
0.31935477 0.11422177 2.6590002
0.32401687 0.11422177 2.6590002
0.328679 0.11422177 2.6590002
0.33083382 0.11336264 2.6390002
0.33546087 0.11336264 2.6390002
0.34008792 0.11336264 2.6390002
0.34471497 0.11336264 2.6390002
0.34934202 0.11336264 2.6390002
0.35396907 0.11336264 2.6390002
0.18765488 0.059323158 1.381
0.19007623 0.059323158 1.381
0.37063801 0.11422177 2.6590002
0.19491895 0.059323158 1.381
0.19734029 0.059323158 1.381
0.19976164 0.059323158 1.381
0.20145099 0.059108373 1.376
0.20386358 0.059108373 1.376
0.20627616 0.059108373 1.376
0.20944706 0.059323158 1.381
0.21186842 0.059323158 1.381
0.21428977 0.059323158 1.381
0.21765266 0.059580896 1.3870001
0.42192125 0.11422177 2.6590002
0.42337477 0.11336264 2.6390002
0.22494829 0.059580896 1.3870001
0.22738016 0.059580896 1.3870001
0.22981203 0.059580896 1.3870001
0.23308112 0.059795681 1.3920001
0.23653693 0.060053419 1.3980001
0.2389881 0.060053419 1.3980001
0.24143925 0.060053419 1.3980001
0.24389042 0.060053419 1.3980001
0.24634157 0.060053419 1.3980001
0.24879274 0.060053419 1.3980001
0.25124389 0.060053419 1.3980001
0.25478387 0.060311161 1.404
0.25724557 0.060311161 1.404
0.26081711 0.060568899 1.4100001
0.2632893 0.060568899 1.4100001
0.26576149 0.060568899 1.4100001
0.26823369 0.060568899 1.4100001
0.27166584 0.060783684 1.4150001
0.27414683 0.060783684 1.4150001
0.27780077 0.061041422 1.4210001
0.28029224 0.061041422 1.4210001
0.28278375 0.061041422 1.4210001
0.28527522 0.061041422 1.4210001
0.2877667 0.061041422 1.4210001
0.29148379 0.061299164 1.427
0.29398578 0.061299164 1.427
0.29648778 0.061299164 1.427
0.2989898 0.061299164 1.427
0.3014918 0.061299164 1.427
0.30399382 0.061299164 1.427
0.30649582 0.061299164 1.427
0.30899781 0.061299164 1.427
0.31149983 0.061299164 1.427
0.31400183 0.061299164 1.427
0.31783462 0.061556902 1.4330001
0.32034716 0.061556902 1.4330001
0.32421151 0.061814643 1.439
0.32673454 0.061814643 1.439
0.32925758 0.061814643 1.439
0.33178064 0.061814643 1.439
0.33430368 0.061814643 1.439
0.33823115 0.062072381 1.4450001
0.3407647 0.062072381 1.4450001
0.34329829 0.062072381 1.4450001
0.34583184 0.062072381 1.4450001
0.34836543 0.062072381 1.4450001
0.35089898 0.062072381 1.4450001
0.35343254 0.062072381 1.4450001
0.35596612 0.062072381 1.4450001
0.35849968 0.062072381 1.4450001
0.36103326 0.062072381 1.4450001
0.36532804 0.062373079 1.452
0.36787388 0.062373079 1.452
0.37041971 0.062373079 1.452
0.37450674 0.062630817 1.4580001
0.3770631 0.062630817 1.4580001
0.37961945 0.062630817 1.4580001
0.38374856 0.062888563 1.4640001
0.38789868 0.063146301 1.47
0.39047611 0.063146301 1.47
0.3930535 0.063146301 1.47
0.3956309 0.063146301 1.47
0.39820829 0.063146301 1.47
0.40078568 0.063146301 1.47
0.40336311 0.063146301 1.47
0.40787354 0.063446999 1.4770001
0.41046321 0.063446999 1.4770001
0.41305289 0.063446999 1.4770001
0.41564256 0.063446999 1.4770001
0.41823223 0.063446999 1.4770001
0.42082191 0.063446999 1.4770001
0.42341158 0.063446999 1.4770001
0.42600125 0.063446999 1.4770001
0.43033201 0.063704737 1.483
0.4329322 0.063704737 1.483
0.43553239 0.063704737 1.483
0.43813258 0.063704737 1.483
0.44073278 0.063704737 1.483
0.44512662 0.063962474 1.4890001
0.44773734 0.063962474 1.4890001
0.45034805 0.063962474 1.4890001
0.4550882 0.064263172 1.4960001
0.45771116 0.064263172 1.4960001
0.46033415 0.064263172 1.4960001
0.46295714 0.064263172 1.4960001
0.46558014 0.064263172 1.4960001
0.46820313 0.064263172 1.4960001
0.47302917 0.06456387 1.503
0.47566444 0.06456387 1.503
0.47829968 0.06456387 1.503
0.48093495 0.06456387 1.503
0.48357022 0.06456387 1.503
0.48620546 0.06456387 1.503
0.48884073 0.06456387 1.503
0.491476 0.06456387 1.503
0.49411124 0.06456387 1.503
0.49674651 0.06456387 1.503
0.60570389 0.078310005 1.8230001
0.59921396 0.077064261 1.794
0.60235941 0.077064261 1.794
0.60550487 0.077064261 1.794
0.60559696 0.07667765 1.7850001
0.60872662 0.07667765 1.7850001
0.61185634 0.07667765 1.7850001
0.61498606 0.07667765 1.7850001
0.61811572 0.07667765 1.7850001
0.62124544 0.07667765 1.7850001
0.62437516 0.07667765 1.7850001
0.49145758 0.060053419 1.3980001
0.49178895 0.059795681 1.3920001
0.49422958 0.059795681 1.3920001
0.49881107 0.060053419 1.3980001
0.50126219 0.060053419 1.3980001
0.50371337 0.060053419 1.3980001
0.50616455 0.060053419 1.3980001
0.50861567 0.060053419 1.3980001
0.51106685 0.060053419 1.3980001
0.51351804 0.060053419 1.3980001
0.51375473 0.059795681 1.3920001
0.51619536 0.059795681 1.3920001
0.51863599 0.059795681 1.3920001
0.52107662 0.059795681 1.3920001
0.52577382 0.060053419 1.3980001
0.528225 0.060053419 1.3980001
0.53067613 0.060053419 1.3980001
0.5308392 0.059795681 1.3920001
0.53327984 0.059795681 1.3920001
0.53802961 0.060053419 1.3980001
0.54048079 0.060053419 1.3980001
0.54293191 0.060053419 1.3980001
0.5410918 0.059580896 1.3870001
0.54352367 0.059580896 1.3870001
0.54595554 0.059580896 1.3870001
0.54838741 0.059580896 1.3870001
-1.4143772 0.11615658 2.598
-1.409822 0.11615658 2.598
-1.4052669 0.11615658 2.598
-1.4007117 0.11615658 2.598
-1.4069045 0.11705078 2.618
-1.4023142 0.11705078 2.618
-1.3870462 0.11615658 2.598
-1.382491 0.11615658 2.598
-1.3779359 0.11615658 2.598
-1.3733808 0.11615658 2.598
-1.3688256 0.11615658 2.598
-1.3642704 0.11615658 2.598
-1.3597152 0.11615658 2.598
-1.3551601 0.11615658 2.598
-1.3506049 0.11615658 2.598
-1.3460498 0.11615658 2.598
-1.3414946 0.11615658 2.598
-1.3369395 0.11615658 2.598
-1.3426412 0.11705078 2.618
-1.3380511 0.11705078 2.618
-1.3334608 0.11705078 2.618
-1.3288707 0.11705078 2.618
-1.334903 0.11798969 2.6390002
-1.3302759 0.11798969 2.6390002
-1.3256489 0.11798969 2.6390002
-1.3210218 0.11798969 2.6390002
-1.3263712 0.11888389 2.6590002
-1.3217092 0.11888389 2.6590002
-1.317047 0.11888389 2.6590002
-1.3123848 0.11888389 2.6590002
-1.3077228 0.11888389 2.6590002
-1.3030607 0.11888389 2.6590002
-1.2983986 0.11888389 2.6590002
-1.2937365 0.11888389 2.6590002
-1.2890743 0.11888389 2.6590002
-1.2844123 0.11888389 2.6590002
-1.2797501 0.11888389 2.6590002
-1.275088 0.11888389 2.6590002
-1.2704259 0.11888389 2.6590002
-1.2657638 0.11888389 2.6590002
-1.2611016 0.11888389 2.6590002
-1.2564396 0.11888389 2.6590002
-1.2517774 0.11888389 2.6590002
-1.2471153 0.11888389 2.6590002
-1.2424532 0.11888389 2.6590002
-1.2377911 0.11888389 2.6590002
-1.233129 0.11888389 2.6590002
-1.2284669 0.11888389 2.6590002
-1.2238047 0.11888389 2.6590002
-1.2191427 0.11888389 2.6590002
-1.2144805 0.11888389 2.6590002
-1.2098184 0.11888389 2.6590002
-1.2051563 0.11888389 2.6590002
-1.2004942 0.11888389 2.6590002
-1.2052764 0.1198228 2.6800001
-1.2005775 0.1198228 2.6800001
-1.1958785 0.1198228 2.6800001
-1.1911796 0.1198228 2.6800001
-1.1864806 0.1198228 2.6800001
-1.1817818 0.1198228 2.6800001
-1.1770828 0.1198228 2.6800001
-1.1723839 0.1198228 2.6800001
-1.1676849 0.1198228 2.6800001
-1.162986 0.1198228 2.6800001
-1.158287 0.1198228 2.6800001
-1.1626275 0.12076171 2.7010002
-1.1578916 0.12076171 2.7010002
-1.1531559 0.12076171 2.7010002
-1.1484202 0.12076171 2.7010002
-1.1529999 0.12174533 2.723
-1.1389487 0.12076171 2.7010002
-1.134213 0.12076171 2.7010002
-1.1294771 0.12076171 2.7010002
-1.1247414 0.12076171 2.7010002
-1.1200056 0.12076171 2.7010002
-1.1152699 0.12076171 2.7010002
-1.1105342 0.12076171 2.7010002
-1.1057984 0.12076171 2.7010002
-1.1010627 0.12076171 2.7010002
-1.0963269 0.12076171 2.7010002
-1.0915911 0.12076171 2.7010002
-1.0868554 0.12076171 2.7010002
-1.0821196 0.12076171 2.7010002
-1.0773839 0.12076171 2.7010002
-1.0726482 0.12076171 2.7010002
-1.0679123 0.12076171 2.7010002
-1.0631766 0.12076171 2.7010002
-1.0584408 0.12076171 2.7010002
-1.0537051 0.12076171 2.7010002
-1.0489694 0.12076171 2.7010002
-1.0442336 0.12076171 2.7010002
-1.0394979 0.12076171 2.7010002
-1.0347621 0.12076171 2.7010002
-1.038416 0.12174533 2.723
-1.0336417 0.12174533 2.723
-1.0288674 0.12174533 2.723
-1.024093 0.12174533 2.723
-1.0271798 0.12268424 2.7440002
-1.0223687 0.12268424 2.7440002
-1.0175575 0.12268424 2.7440002
-1.0127463 0.12268424 2.7440002
-1.0079352 0.12268424 2.7440002
-0.9954471 0.12174533 2.723
-0.99067277 0.12174533 2.723
-0.98589844 0.12174533 2.723
-0.9811241 0.12174533 2.723
-0.97634977 0.12174533 2.723
-0.9715755 0.12174533 2.723
-0.96680117 0.12174533 2.723
-0.96202683 0.12174533 2.723
-0.9646349 0.12268424 2.7440002
-0.95982373 0.12268424 2.7440002
-0.95501262 0.12268424 2.7440002
-0.96578419 0.12469619 2.789
-0.96089417 0.12469619 2.789
-0.94846302 0.12371257 2.7670002
-0.94361156 0.12371257 2.7670002
-0.94622403 0.12469619 2.789
-0.94133395 0.12469619 2.789
-0.94416648 0.12572452 2.812
-0.42921862 0.074710406 1.6710001
-0.42628881 0.074710406 1.6710001
-0.42133212 0.074352726 1.6630001
-0.41841635 0.074352726 1.6630001
-0.41550055 0.074352726 1.6630001
-0.41258475 0.074352726 1.6630001
-0.40769821 0.073995046 1.6550001
-0.40479645 0.073995046 1.6550001
-0.40189469 0.073995046 1.6550001
-0.39899293 0.073995046 1.6550001
-0.39800578 0.074352726 1.6630001
-0.44169709 0.083741829 1.8730001
-0.43841311 0.083741829 1.8730001
-0.43512911 0.083741829 1.8730001
-0.43184513 0.083741829 1.8730001
-0.43084922 0.084188931 1.8830001
-0.40520409 0.097020701 2.1700001
-0.3988097 0.096394762 2.1560001
-0.39502952 0.096394762 2.1560001
-0.38889021 0.095813528 2.1430001
-0.38261679 0.09518759 2.1290002
-0.37888393 0.09518759 2.1290002
-0.37286037 0.094606362 2.1160002
-0.36915031 0.094606362 2.1160002
-0.36544025 0.094606362 2.1160002
-0.35950786 0.094025128 2.1030002
-0.3558206 0.094025128 2.1030002
-0.34995657 0.0934439 2.0900002
-0.34430382 0.092907377 2.0780001
-0.33852923 0.092326149 2.0650001
-0.33296239 0.091789633 2.0530002
-0.32936278 0.091789633 2.0530002
-0.3237004 0.091208398 2.0400002
-0.31824052 0.090671882 2.0280001
-0.31282273 0.090135358 2.016
-0.309288 0.090135358 2.016
-0.30408499 0.089643553 2.0050001
-0.30056953 0.089643553 2.0050001
-0.29527622 0.089107029 1.9930001
-0.29178184 0.089107029 1.9930001
-0.22823754 0.083741829 1.8730001
-0.22495355 0.083741829 1.8730001
-0.22048604 0.083294727 1.863
-0.21605362 0.082847632 1.853
-0.21165626 0.082400531 1.8430001
-0.20842487 0.082400531 1.8430001
-0.20519347 0.082400531 1.8430001
-0.20086625 0.081953429 1.8330001
-0.19765238 0.081953429 1.8330001
-0.19443853 0.081953429 1.8330001
-0.19018143 0.081506327 1.8230001
-0.18595941 0.081059232 1.8130001
-0.18187326 0.080656841 1.8040001
-0.17871025 0.080656841 1.8040001
-0.17554724 0.080656841 1.8040001
-0.17142867 0.08020974 1.794
-0.16828318 0.08020974 1.794
-0.16430925 0.079807349 1.7850001
-0.16117954 0.079807349 1.7850001
-0.15804985 0.079807349 1.7850001
-0.15413904 0.079404958 1.7760001
-0.15102512 0.079404958 1.7760001
-0.14707837 0.078957863 1.766
-0.14398198 0.078957863 1.766
-0.14088559 0.078957863 1.766
-0.1377892 0.078957863 1.766
-0.13469282 0.078957863 1.766
-0.1267774 0.088570513 1.9810001
-0.12261937 0.0880787 1.9700001
-0.1191653 0.0880787 1.9700001
-0.11571123 0.0880787 1.9700001
-0.11225717 0.0880787 1.9700001
-0.1088031 0.0880787 1.9700001
-0.10534903 0.0880787 1.9700001
-0.065473847 0.085619651 1.9150001
-0.062116217 0.085619651 1.9150001
-0.058758583 0.085619651 1.9150001
-0.055400949 0.085619651 1.9150001
-0.052342258 0.086111456 1.9260001
-0.048965339 0.086111456 1.9260001
-0.06883236 0.13001668 2.9080002
-0.063733667 0.13001668 2.9080002
-0.058634974 0.13001668 2.9080002
-0.053536281 0.13001668 2.9080002
-0.048437588 0.13001668 2.9080002
-0.043338895 0.13001668 2.9080002
-0.038240198 0.13001668 2.9080002
-0.033141505 0.13001668 2.9080002
-0.028042814 0.13001668 2.9080002
-0.023141369 0.13113444 2.9330001
-0.017998843 0.13113444 2.9330001
-0.012856317 0.13113444 2.9330001
-0.0077137901 0.13113444 2.9330001
-0.0025712634 0.13113444 2.9330001
0.0025712634 0.13113444 2.9330001
0.0077137901 0.13113444 2.9330001
0.012856317 0.13113444 2.9330001
0.017998843 0.13113444 2.9330001
0.023141369 0.13113444 2.9330001
0.028283896 0.13113444 2.9330001
0.033426423 0.13113444 2.9330001
0.038240198 0.13001668 2.9080002
0.043338895 0.13001668 2.9080002
0.04762141 0.12782589 2.8590002
0.17426293 0.12174533 2.723
0.17903724 0.12174533 2.723
0.18381158 0.12174533 2.723
0.18858591 0.12174533 2.723
0.19336022 0.12174533 2.723
0.19813456 0.12174533 2.723
0.20126952 0.12076171 2.7010002
0.20600528 0.12076171 2.7010002
0.21074103 0.12076171 2.7010002
0.21547678 0.12076171 2.7010002
0.22021253 0.12076171 2.7010002
0.22494829 0.12076171 2.7010002
0.22968404 0.12076171 2.7010002
0.23441979 0.12076171 2.7010002
0.23915555 0.12076171 2.7010002
0.24199507 0.1198228 2.6800001
0.246694 0.1198228 2.6800001
0.25139293 0.1198228 2.6800001
0.25609186 0.1198228 2.6800001
0.2607908 0.1198228 2.6800001
0.26548973 0.1198228 2.6800001
0.27018866 0.1198228 2.6800001
0.27273363 0.11888389 2.6590002
0.27739576 0.11888389 2.6590002
0.28205785 0.11888389 2.6590002
0.28671998 0.11888389 2.6590002
0.29138207 0.11888389 2.6590002
0.2960442 0.11888389 2.6590002
0.3007063 0.11888389 2.6590002
0.30536842 0.11888389 2.6590002
0.31003052 0.11888389 2.6590002
0.31469265 0.11888389 2.6590002
0.31935477 0.11888389 2.6590002
0.32401687 0.11888389 2.6590002
0.328679 0.11888389 2.6590002
0.33083382 0.11798969 2.6390002
0.33546087 0.11798969 2.6390002
0.34008792 0.11798969 2.6390002
0.34471497 0.11798969 2.6390002
0.34934202 0.11798969 2.6390002
0.35396907 0.11798969 2.6390002
0.18697546 0.06152096 1.376
0.18938805 0.06152096 1.376
0.19180064 0.06152096 1.376
0.19421323 0.06152096 1.376
0.19662581 0.06152096 1.376
0.1990384 0.06152096 1.376
0.20145099 0.06152096 1.376
0.20386358 0.06152096 1.376
0.20627616 0.06152096 1.376
0.20868875 0.06152096 1.376
0.21110134 0.06152096 1.376
0.21351393 0.06152096 1.376
0.21671112 0.061744511 1.381
0.21913247 0.061744511 1.381
0.22155383 0.061744511 1.381
0.22397518 0.061744511 1.381
0.22738016 0.062012769 1.3870001
0.22981203 0.062012769 1.3870001
0.23308112 0.06223632 1.3920001
0.23552176 0.06223632 1.3920001
0.23796239 0.06223632 1.3920001
0.24040304 0.06223632 1.3920001
0.24389042 0.062504582 1.3980001
0.24634157 0.062504582 1.3980001
0.24879274 0.062504582 1.3980001
0.25124389 0.062504582 1.3980001
0.25369507 0.062504582 1.3980001
0.25724557 0.06277284 1.404
0.25970724 0.06277284 1.404
0.2632893 0.063041098 1.4100001
0.26576149 0.063041098 1.4100001
0.26823369 0.063041098 1.4100001
0.27070591 0.063041098 1.4100001
0.2731781 0.063041098 1.4100001
0.27662778 0.063264653 1.4150001
0.27910876 0.063264653 1.4150001
0.28158972 0.063264653 1.4150001
0.28407067 0.063264653 1.4150001
0.2877667 0.063532911 1.4210001
0.2902582 0.063532911 1.4210001
0.29274967 0.063532911 1.4210001
0.29524118 0.063532911 1.4210001
0.29773265 0.063532911 1.4210001
0.30022416 0.063532911 1.4210001
0.30271563 0.063532911 1.4210001
0.3052071 0.063532911 1.4210001
0.30769861 0.063532911 1.4210001
0.31019008 0.063532911 1.4210001
0.31400183 0.063801169 1.427
0.31650385 0.063801169 1.427
0.31900585 0.063801169 1.427
0.32285967 0.064069428 1.4330001
0.32537219 0.064069428 1.4330001
0.32788473 0.064069428 1.4330001
0.33039725 0.064069428 1.4330001
0.33430368 0.064337693 1.439
0.33682674 0.064337693 1.439
0.33934978 0.064337693 1.439
0.34187281 0.064337693 1.439
0.34439588 0.064337693 1.439
0.34836543 0.064605951 1.4450001
0.35089898 0.064605951 1.4450001
0.35343254 0.064605951 1.4450001
0.35596612 0.064605951 1.4450001
0.35849968 0.064605951 1.4450001
0.36103326 0.064605951 1.4450001
0.36356682 0.064605951 1.4450001
0.36787388 0.06491892 1.452
0.37041971 0.06491892 1.452
0.37450674 0.065187179 1.4580001
0.3770631 0.065187179 1.4580001
0.37961945 0.065187179 1.4580001
0.38374856 0.065455437 1.4640001
0.38631544 0.065455437 1.4640001
0.38888231 0.065455437 1.4640001
0.39144918 0.065455437 1.4640001
0.3956309 0.065723702 1.47
0.39820829 0.065723702 1.47
0.40078568 0.065723702 1.47
0.40336311 0.065723702 1.47
0.4059405 0.065723702 1.47
0.4085179 0.065723702 1.47
0.41109529 0.065723702 1.47
0.41564256 0.066036671 1.4770001
0.41823223 0.066036671 1.4770001
0.42082191 0.066036671 1.4770001
0.42341158 0.066036671 1.4770001
0.42600125 0.066036671 1.4770001
0.42859092 0.066036671 1.4770001
0.4311806 0.066036671 1.4770001
0.43553239 0.06630493 1.483
0.43813258 0.06630493 1.483
0.44073278 0.06630493 1.483
0.44512662 0.066573188 1.4890001
0.44773734 0.066573188 1.4890001
0.45034805 0.066573188 1.4890001
0.4550882 0.066886157 1.4960001
0.45771116 0.066886157 1.4960001
0.46033415 0.066886157 1.4960001
0.46295714 0.066886157 1.4960001
0.46558014 0.066886157 1.4960001
0.46820313 0.066886157 1.4960001
0.47302917 0.067199126 1.503
0.47566444 0.067199126 1.503
0.47829968 0.067199126 1.503
0.48093495 0.067199126 1.503
0.48357022 0.067199126 1.503
0.48620546 0.067199126 1.503
0.48884073 0.067199126 1.503
0.491476 0.067199126 1.503
0.49411124 0.067199126 1.503
0.49674651 0.067199126 1.503
0.60570389 0.081506327 1.8230001
0.59921396 0.08020974 1.794
0.60235941 0.08020974 1.794
0.60246724 0.079807349 1.7850001
0.60559696 0.079807349 1.7850001
0.60872662 0.079807349 1.7850001
0.61185634 0.079807349 1.7850001
0.61498606 0.079807349 1.7850001
0.61499918 0.079404958 1.7760001
0.48272684 0.062012769 1.3870001
0.48515874 0.062012769 1.3870001
0.48934832 0.06223632 1.3920001
0.49178895 0.06223632 1.3920001
0.49422958 0.06223632 1.3920001
0.49667025 0.06223632 1.3920001
0.49911088 0.06223632 1.3920001
0.50371337 0.062504582 1.3980001
0.50399214 0.06223632 1.3920001
0.50643277 0.06223632 1.3920001
0.50887346 0.06223632 1.3920001
0.51131409 0.06223632 1.3920001
0.51375473 0.06223632 1.3920001
0.51619536 0.06223632 1.3920001
0.51863599 0.06223632 1.3920001
0.52107662 0.06223632 1.3920001
0.52351725 0.06223632 1.3920001
0.528225 0.062504582 1.3980001
0.53067613 0.062504582 1.3980001
0.52893245 0.062012769 1.3870001
0.53136432 0.062012769 1.3870001
0.53572047 0.06223632 1.3920001
0.5381611 0.06223632 1.3920001
0.54060173 0.06223632 1.3920001
0.5410918 0.062012769 1.3870001
0.54352367 0.062012769 1.3870001
0.54595554 0.062012769 1.3870001
0.54838741 0.062012769 1.3870001
-1.4143772 0.12071174 2.598
-1.409822 0.12071174 2.598
-1.4052669 0.12071174 2.598
-1.4007117 0.12071174 2.598
-1.3961565 0.12071174 2.598
-1.3916013 0.12071174 2.598
-1.3870462 0.12071174 2.598
-1.382491 0.12071174 2.598
-1.3779359 0.12071174 2.598
-1.3733808 0.12071174 2.598
-1.3688256 0.12071174 2.598
-1.3642704 0.12071174 2.598
-1.3597152 0.12071174 2.598
-1.3551601 0.12071174 2.598
-1.3506049 0.12071174 2.598
-1.3460498 0.12071174 2.598
-1.3414946 0.12071174 2.598
-1.3369395 0.12071174 2.598
-1.3323843 0.12071174 2.598
-1.3278291 0.12071174 2.598
-1.323274 0.12071174 2.598
-1.3288707 0.121641 2.618
-1.3242804 0.121641 2.618
-1.3196901 0.121641 2.618
-1.3151 0.121641 2.618
-1.3105097 0.121641 2.618
-1.3059195 0.121641 2.618
-1.3013293 0.121641 2.618
-1.3071407 0.12261674 2.6390002
-1.3025136 0.12261674 2.6390002
-1.2978866 0.12261674 2.6390002
-1.2932595 0.12261674 2.6390002
-1.2886325 0.12261674 2.6390002
-1.2840054 0.12261674 2.6390002
-1.2793784 0.12261674 2.6390002
-1.2844123 0.123546 2.6590002
-1.2797501 0.123546 2.6590002
-1.275088 0.123546 2.6590002
-1.2704259 0.123546 2.6590002
-1.2657638 0.123546 2.6590002
-1.2611016 0.123546 2.6590002
-1.2564396 0.123546 2.6590002
-1.2517774 0.123546 2.6590002
-1.237735 0.12261674 2.6390002
-1.2331079 0.12261674 2.6390002
-1.2284809 0.12261674 2.6390002
-1.2238538 0.12261674 2.6390002
-1.2192268 0.12261674 2.6390002
-1.2145997 0.12261674 2.6390002
-1.2099727 0.12261674 2.6390002
-1.2053456 0.12261674 2.6390002
-1.2007186 0.12261674 2.6390002
-1.2051563 0.123546 2.6590002
-1.2004942 0.123546 2.6590002
-1.195832 0.123546 2.6590002
-1.19117 0.123546 2.6590002
-1.1958785 0.12452173 2.6800001
-1.1911796 0.12452173 2.6800001
-1.1864806 0.12452173 2.6800001
-1.1817818 0.12452173 2.6800001
-1.1770828 0.12452173 2.6800001
-1.1723839 0.12452173 2.6800001
-1.1676849 0.12452173 2.6800001
-1.162986 0.12452173 2.6800001
-1.158287 0.12452173 2.6800001
-1.1535882 0.12452173 2.6800001
-1.1578916 0.12549746 2.7010002
-1.1531559 0.12549746 2.7010002
-1.1484202 0.12549746 2.7010002
-1.1436844 0.12549746 2.7010002
-1.1389487 0.12549746 2.7010002
-1.134213 0.12549746 2.7010002
-1.1294771 0.12549746 2.7010002
-1.1247414 0.12549746 2.7010002
-1.1200056 0.12549746 2.7010002
-1.1152699 0.12549746 2.7010002
-1.1018999 0.12452173 2.6800001
-1.0972009 0.12452173 2.6800001
-1.092502 0.12452173 2.6800001
-1.087803 0.12452173 2.6800001
-1.0831041 0.12452173 2.6800001
-1.0784051 0.12452173 2.6800001
-1.0737063 0.12452173 2.6800001
-1.0690073 0.12452173 2.6800001
-1.0643084 0.12452173 2.6800001
-1.0596094 0.12452173 2.6800001
-1.0631766 0.12549746 2.7010002
-1.0584408 0.12549746 2.7010002
-1.0537051 0.12549746 2.7010002
-1.0489694 0.12549746 2.7010002
-1.0442336 0.12549746 2.7010002
-1.0394979 0.12549746 2.7010002
-1.0347621 0.12549746 2.7010002
-1.0300263 0.12549746 2.7010002
-1.0252906 0.12549746 2.7010002
-1.0205548 0.12549746 2.7010002
-1.0158191 0.12549746 2.7010002
-1.0193187 0.12651965 2.723
-1.0145444 0.12651965 2.723
-1.00977 0.12651965 2.723
-1.0049957 0.12651965 2.723
-1.0002214 0.12651965 2.723
-0.9954471 0.12651965 2.723
-0.99067277 0.12651965 2.723
-0.97793305 0.12549746 2.7010002
-0.97319728 0.12549746 2.7010002
-0.97634977 0.12651965 2.723
-0.9715755 0.12651965 2.723
-0.95899004 0.12549746 2.7010002
-0.95425427 0.12549746 2.7010002
-0.9572525 0.12651965 2.723
-0.95247817 0.12651965 2.723
-0.94770384 0.12651965 2.723
-0.958166 0.12856404 2.7670002
-0.95331448 0.12856404 2.7670002
-0.94846302 0.12856404 2.7670002
-0.94361156 0.12856404 2.7670002
-0.9387601 0.12856404 2.7670002
-0.93390858 0.12856404 2.7670002
-0.92905712 0.12856404 2.7670002
-0.43153039 0.078058399 1.6800001
-0.42628881 0.077640228 1.6710001
-0.42133212 0.077268526 1.6630001
-0.41841635 0.077268526 1.6630001
-0.41550055 0.077268526 1.6630001
-0.41258475 0.077268526 1.6630001
-0.40769821 0.076896816 1.6550001
-0.40479645 0.076896816 1.6550001
-0.40189469 0.076896816 1.6550001
-0.39899293 0.076896816 1.6550001
-0.39800578 0.077268526 1.6630001
-0.3988097 0.10017495 2.1560001
-0.39502952 0.10017495 2.1560001
-0.38889021 0.099570923 2.1430001
-0.38261679 0.098920435 2.1290002
-0.37888393 0.098920435 2.1290002
-0.37286037 0.098316416 2.1160002
-0.36915031 0.098316416 2.1160002
-0.36319512 0.09771239 2.1030002
-0.35950786 0.09771239 2.1030002
-0.3558206 0.09771239 2.1030002
-0.34995657 0.097108364 2.0900002
-0.34430382 0.096550807 2.0780001
-0.33852923 0.095946781 2.0650001
-0.33296239 0.095389225 2.0530002
-0.32936278 0.095389225 2.0530002
-0.3237004 0.094785199 2.0400002
-0.31824052 0.094227642 2.0280001
-0.31282273 0.093670078 2.016
-0.309288 0.093670078 2.016
-0.30408499 0.093158983 2.0050001
-0.30056953 0.093158983 2.0050001
-0.29527622 0.092601426 1.9930001
-0.29178184 0.092601426 1.9930001
-0.22048604 0.086561188 1.863
-0.21605362 0.086096555 1.853
-0.21165626 0.085631922 1.8430001
-0.20842487 0.085631922 1.8430001
-0.20519347 0.085631922 1.8430001
-0.20086625 0.085167289 1.8330001
-0.19765238 0.085167289 1.8330001
-0.19443853 0.085167289 1.8330001
-0.19018143 0.084702656 1.8230001
-0.18595941 0.084238023 1.8130001
-0.18187326 0.083819851 1.8040001
-0.17871025 0.083819851 1.8040001
-0.17554724 0.083819851 1.8040001
-0.17142867 0.083355218 1.794
-0.16828318 0.083355218 1.794
-0.16430925 0.082937047 1.7850001
-0.16117954 0.082937047 1.7850001
-0.15725295 0.082518883 1.7760001
-0.15413904 0.082518883 1.7760001
-0.15017475 0.082054242 1.766
-0.14707837 0.082054242 1.766
-0.14398198 0.082054242 1.766
-0.14088559 0.082054242 1.766
-0.137087 0.081636079 1.7570001
-0.1340064 0.081636079 1.7570001
-0.13092579 0.081636079 1.7570001
-0.1267774 0.092043862 1.9810001
-0.12261937 0.091532767 1.9700001
-0.1191653 0.091532767 1.9700001
-0.11571123 0.091532767 1.9700001
-0.11225717 0.091532767 1.9700001
-0.10819557 0.091021672 1.9590001
-0.10476079 0.091021672 1.9590001
-0.055719178 0.08948838 1.9260001
-0.052342258 0.08948838 1.9260001
-0.048965339 0.08948838 1.9260001
-0.068240613 0.13395379 2.8830001
-0.063185751 0.13395379 2.8830001
-0.058634974 0.13511537 2.9080002
-0.053536281 0.13511537 2.9080002
-0.048437588 0.13511537 2.9080002
-0.043338895 0.13511537 2.9080002
-0.038240198 0.13511537 2.9080002
-0.033141505 0.13511537 2.9080002
-0.028042814 0.13511537 2.9080002
-0.023141369 0.13627696 2.9330001
-0.017998843 0.13627696 2.9330001
-0.012856317 0.13627696 2.9330001
-0.0077137901 0.13627696 2.9330001
-0.0025712634 0.13627696 2.9330001
0.0025712634 0.13627696 2.9330001
0.0077137901 0.13627696 2.9330001
0.012746734 0.13511537 2.9080002
0.017845426 0.13511537 2.9080002
0.022944121 0.13511537 2.9080002
0.028042814 0.13511537 2.9080002
0.033141505 0.13511537 2.9080002
0.038240198 0.13511537 2.9080002
0.043338895 0.13511537 2.9080002
0.04762141 0.13283867 2.8590002
0.052192349 0.13172355 2.835
0.056699295 0.13065489 2.812
0.16948859 0.12651965 2.723
0.17426293 0.12651965 2.723
0.17903724 0.12651965 2.723
0.18381158 0.12651965 2.723
0.18858591 0.12651965 2.723
0.19336022 0.12651965 2.723
0.19813456 0.12651965 2.723
0.20126952 0.12549746 2.7010002
0.20600528 0.12549746 2.7010002
0.21074103 0.12549746 2.7010002
0.21547678 0.12549746 2.7010002
0.22021253 0.12549746 2.7010002
0.22494829 0.12549746 2.7010002
0.22968404 0.12549746 2.7010002
0.23441979 0.12549746 2.7010002
0.23915555 0.12549746 2.7010002
0.24199507 0.12452173 2.6800001
0.246694 0.12452173 2.6800001
0.25139293 0.12452173 2.6800001
0.25609186 0.12452173 2.6800001
0.25874728 0.123546 2.6590002
0.26340941 0.123546 2.6590002
0.2680715 0.123546 2.6590002
0.27273363 0.123546 2.6590002
0.27739576 0.123546 2.6590002
0.28205785 0.123546 2.6590002
0.28456336 0.12261674 2.6390002
0.28919041 0.12261674 2.6390002
0.29381746 0.12261674 2.6390002
0.29844451 0.12261674 2.6390002
0.30307156 0.12261674 2.6390002
0.31003052 0.123546 2.6590002
0.31469265 0.123546 2.6590002
0.31935477 0.123546 2.6590002
0.32401687 0.123546 2.6590002
0.328679 0.123546 2.6590002
0.33334109 0.123546 2.6590002
0.33800322 0.123546 2.6590002
0.34266531 0.123546 2.6590002
0.17830084 0.063422449 1.365
0.18069415 0.063422449 1.365
0.18308745 0.063422449 1.365
0.18616016 0.063654765 1.3700001
0.18856223 0.063654765 1.3700001
0.1909643 0.063654765 1.3700001
0.19336636 0.063654765 1.3700001
0.19576843 0.063654765 1.3700001
0.1990384 0.063933544 1.376
0.20145099 0.063933544 1.376
0.20386358 0.063933544 1.376
0.20627616 0.063933544 1.376
0.20868875 0.063933544 1.376
0.21110134 0.063933544 1.376
0.21351393 0.063933544 1.376
0.2159265 0.063933544 1.376
0.21833909 0.063933544 1.376
0.22075167 0.063933544 1.376
0.22316426 0.063933544 1.376
0.22639653 0.06416586 1.381
0.22981203 0.064444646 1.3870001
0.2322439 0.064444646 1.3870001
0.23467578 0.064444646 1.3870001
0.23796239 0.064676963 1.3920001
0.24040304 0.064676963 1.3920001
0.24284367 0.064676963 1.3920001
0.24528432 0.064676963 1.3920001
0.24772497 0.064676963 1.3920001
0.25016561 0.064676963 1.3920001
0.25369507 0.064955741 1.3980001
0.25614622 0.064955741 1.3980001
0.25859737 0.064955741 1.3980001
0.26216891 0.06523452 1.404
0.26463059 0.06523452 1.404
0.26709229 0.06523452 1.404
0.26955396 0.06523452 1.404
0.27201563 0.06523452 1.404
0.27565029 0.065513298 1.4100001
0.27812248 0.065513298 1.4100001
0.28059471 0.065513298 1.4100001
0.2830669 0.065513298 1.4100001
0.28553909 0.065513298 1.4100001
0.28903261 0.065745614 1.4150001
0.29151359 0.065745614 1.4150001
0.29399455 0.065745614 1.4150001
0.2964755 0.065745614 1.4150001
0.29895648 0.065745614 1.4150001
0.30143744 0.065745614 1.4150001
0.30391842 0.065745614 1.4150001
0.30769861 0.066024393 1.4210001
0.31019008 0.066024393 1.4210001
0.31268159 0.066024393 1.4210001
0.31517306 0.066024393 1.4210001
0.31766453 0.066024393 1.4210001
0.32150784 0.066303179 1.427
0.32400987 0.066303179 1.427
0.32651186 0.066303179 1.427
0.32901388 0.066303179 1.427
0.33290979 0.066581957 1.4330001
0.33682674 0.066860735 1.439
0.33934978 0.066860735 1.439
0.34187281 0.066860735 1.439
0.34439588 0.066860735 1.439
0.34691891 0.066860735 1.439
0.34944198 0.066860735 1.439
0.35196501 0.066860735 1.439
0.35448804 0.066860735 1.439
0.35701111 0.066860735 1.439
0.36103326 0.067139514 1.4450001
0.36356682 0.067139514 1.4450001
0.36610037 0.067139514 1.4450001
0.37041971 0.067464761 1.452
0.37296554 0.067464761 1.452
0.37551141 0.067464761 1.452
0.37961945 0.06774354 1.4580001
0.3821758 0.06774354 1.4580001
0.38631544 0.068022318 1.4640001
0.38888231 0.068022318 1.4640001
0.39144918 0.068022318 1.4640001
0.39401609 0.068022318 1.4640001
0.39658296 0.068022318 1.4640001
0.40078568 0.068301097 1.47
0.40336311 0.068301097 1.47
0.4059405 0.068301097 1.47
0.4085179 0.068301097 1.47
0.41109529 0.068301097 1.47
0.41367269 0.068301097 1.47
0.41823223 0.068626344 1.4770001
0.42082191 0.068626344 1.4770001
0.42341158 0.068626344 1.4770001
0.42600125 0.068626344 1.4770001
0.42859092 0.068626344 1.4770001
0.4311806 0.068626344 1.4770001
0.43377027 0.068626344 1.4770001
0.43635994 0.068626344 1.4770001
0.43894961 0.068626344 1.4770001
0.44333297 0.068905123 1.483
0.44593316 0.068905123 1.483
0.44853336 0.068905123 1.483
0.45295876 0.069183901 1.4890001
0.45556948 0.069183901 1.4890001
0.46033415 0.069509149 1.4960001
0.46295714 0.069509149 1.4960001
0.46558014 0.069509149 1.4960001
0.46820313 0.069509149 1.4960001
0.47302917 0.069834389 1.503
0.47566444 0.069834389 1.503
0.47829968 0.069834389 1.503
0.48093495 0.069834389 1.503
0.48357022 0.069834389 1.503
0.48620546 0.069834389 1.503
0.48884073 0.069834389 1.503
0.491476 0.069834389 1.503
0.49411124 0.069834389 1.503
0.49674651 0.069834389 1.503
0.61234903 0.085631922 1.8430001
0.59921396 0.083355218 1.794
0.60235941 0.083355218 1.794
0.60246724 0.082937047 1.7850001
0.60254353 0.082518883 1.7760001
0.47095323 0.06416586 1.381
0.47337458 0.06416586 1.381
0.47579592 0.06416586 1.381
0.47821727 0.06416586 1.381
0.48272684 0.064444646 1.3870001
0.48515874 0.064444646 1.3870001
0.48759061 0.064444646 1.3870001
0.49002248 0.064444646 1.3870001
0.49245435 0.064444646 1.3870001
0.49488622 0.064444646 1.3870001
0.49731809 0.064444646 1.3870001
0.49974996 0.064444646 1.3870001
0.50218183 0.064444646 1.3870001
0.5046137 0.064444646 1.3870001
0.50704557 0.064444646 1.3870001
0.51131409 0.064676963 1.3920001
0.51375473 0.064676963 1.3920001
0.51619536 0.064676963 1.3920001
0.51863599 0.064676963 1.3920001
0.52107662 0.064676963 1.3920001
0.52351725 0.064676963 1.3920001
0.52595794 0.064676963 1.3920001
0.52839857 0.064676963 1.3920001
0.52893245 0.064444646 1.3870001
0.53136432 0.064444646 1.3870001
0.53379619 0.064444646 1.3870001
0.53622806 0.064444646 1.3870001
0.54060173 0.064676963 1.3920001
0.54304242 0.064676963 1.3920001
0.54117244 0.06416586 1.381
0.54359382 0.06416586 1.381
0.54601514 0.06416586 1.381
-1.4040334 0.12435079 2.5790002
-1.3995116 0.12435079 2.5790002
-1.3949897 0.12435079 2.5790002
-1.3904679 0.12435079 2.5790002
-1.385946 0.12435079 2.5790002
-1.3814242 0.12435079 2.5790002
-1.3870462 0.12526689 2.598
-1.382491 0.12526689 2.598
-1.3779359 0.12526689 2.598
-1.3733808 0.12526689 2.598
-1.3688256 0.12526689 2.598
-1.3642704 0.12526689 2.598
-1.3597152 0.12526689 2.598
-1.3551601 0.12526689 2.598
-1.3506049 0.12526689 2.598
-1.3460498 0.12526689 2.598
-1.3414946 0.12526689 2.598
-1.3369395 0.12526689 2.598
-1.3323843 0.12526689 2.598
-1.3278291 0.12526689 2.598
-1.323274 0.12526689 2.598
-1.3187188 0.12526689 2.598
-1.3141637 0.12526689 2.598
-1.3096085 0.12526689 2.598
-1.3050534 0.12526689 2.598
-1.3004981 0.12526689 2.598
-1.295943 0.12526689 2.598
-1.3013293 0.12623124 2.618
-1.296739 0.12623124 2.618
-1.2921488 0.12623124 2.618
-1.2875586 0.12623124 2.618
-1.2829684 0.12623124 2.618
-1.2886325 0.12724379 2.6390002
-1.2840054 0.12724379 2.6390002
-1.2793784 0.12724379 2.6390002
-1.2747513 0.12724379 2.6390002
-1.2701243 0.12724379 2.6390002
-1.2654972 0.12724379 2.6390002
-1.2608702 0.12724379 2.6390002
-1.2562431 0.12724379 2.6390002
-1.2516161 0.12724379 2.6390002
-1.246989 0.12724379 2.6390002
-1.242362 0.12724379 2.6390002
-1.237735 0.12724379 2.6390002
-1.2331079 0.12724379 2.6390002
-1.2284809 0.12724379 2.6390002
-1.2238538 0.12724379 2.6390002
-1.2095248 0.12623124 2.618
-1.2049345 0.12623124 2.618
-1.2003443 0.12623124 2.618
-1.1957541 0.12623124 2.618
-1.2007186 0.12724379 2.6390002
-1.1960915 0.12724379 2.6390002
-1.1914645 0.12724379 2.6390002
-1.195832 0.12820812 2.6590002
-1.19117 0.12820812 2.6590002
-1.1865078 0.12820812 2.6590002
-1.1818457 0.12820812 2.6590002
-1.1771836 0.12820812 2.6590002
-1.1725215 0.12820812 2.6590002
-1.1678594 0.12820812 2.6590002
-1.1723839 0.12922066 2.6800001
-1.1585351 0.12820812 2.6590002
-1.1538731 0.12820812 2.6590002
-1.1492109 0.12820812 2.6590002
-1.1445488 0.12820812 2.6590002
-1.1488892 0.12922066 2.6800001
-1.1441903 0.12922066 2.6800001
-1.1394913 0.12922066 2.6800001
-1.1347924 0.12922066 2.6800001
-1.1300935 0.12922066 2.6800001
-1.1253946 0.12922066 2.6800001
-1.1206956 0.12922066 2.6800001
-1.1159967 0.12922066 2.6800001
-1.1112977 0.12922066 2.6800001
-1.1065987 0.12922066 2.6800001
-1.1018999 0.12922066 2.6800001
-1.0972009 0.12922066 2.6800001
-1.0839413 0.12820812 2.6590002
-1.0792792 0.12820812 2.6590002
-1.0746171 0.12820812 2.6590002
-1.0784051 0.12922066 2.6800001
-1.0737063 0.12922066 2.6800001
-1.0690073 0.12922066 2.6800001
-1.0643084 0.12922066 2.6800001
-1.0596094 0.12922066 2.6800001
-1.0549105 0.12922066 2.6800001
-1.0502115 0.12922066 2.6800001
-1.0455127 0.12922066 2.6800001
-1.0408137 0.12922066 2.6800001
-1.0361148 0.12922066 2.6800001
-1.0314158 0.12922066 2.6800001
-1.0267169 0.12922066 2.6800001
-1.022018 0.12922066 2.6800001
-1.0173191 0.12922066 2.6800001
-1.0205548 0.13023321 2.7010002
-1.0158191 0.13023321 2.7010002
-1.0193187 0.13129398 2.723
-1.0063475 0.13023321 2.7010002
-1.0016118 0.13023321 2.7010002
-0.99687606 0.13023321 2.7010002
-0.99214029 0.13023321 2.7010002
-0.98740458 0.13023321 2.7010002
-0.98266882 0.13023321 2.7010002
-0.97793305 0.13023321 2.7010002
-0.97319728 0.13023321 2.7010002
-0.96846157 0.13023321 2.7010002
-0.96372581 0.13023321 2.7010002
-0.95899004 0.13023321 2.7010002
-0.95425427 0.13023321 2.7010002
-0.94951856 0.13023321 2.7010002
-0.95247817 0.13129398 2.723
-0.94770384 0.13129398 2.723
-0.95020145 0.13230653 2.7440002
-0.95331448 0.13341552 2.7670002
-0.94846302 0.13341552 2.7670002
-0.94361156 0.13341552 2.7670002
-0.9309569 0.13230653 2.7440002
-0.92614573 0.13230653 2.7440002
-0.92905712 0.13341552 2.7670002
-0.43654492 0.081389733 1.6880001
-0.43153039 0.081004001 1.6800001
-0.42628881 0.08057005 1.6710001
-0.42133212 0.080184318 1.6630001
-0.41841635 0.080184318 1.6630001
-0.41550055 0.080184318 1.6630001
-0.41258475 0.080184318 1.6630001
-0.40769821 0.079798579 1.6550001
-0.40479645 0.079798579 1.6550001
-0.40189469 0.079798579 1.6550001
-0.39899293 0.079798579 1.6550001
-0.39800578 0.080184318 1.6630001
-0.3988097 0.10395513 2.1560001
-0.39502952 0.10395513 2.1560001
-0.38889021 0.10332832 2.1430001
-0.38261679 0.10265328 2.1290002
-0.37888393 0.10265328 2.1290002
-0.37286037 0.10202646 2.1160002
-0.36915031 0.10202646 2.1160002
-0.36319512 0.10139965 2.1030002
-0.35950786 0.10139965 2.1030002
-0.3558206 0.10139965 2.1030002
-0.34995657 0.10077284 2.0900002
-0.34430382 0.10019423 2.0780001
-0.33852923 0.099567413 2.0650001
-0.33296239 0.098988816 2.0530002
-0.32936278 0.098988816 2.0530002
-0.3237004 0.098361999 2.0400002
-0.31824052 0.097783402 2.0280001
-0.31282273 0.097204797 2.016
-0.309288 0.097204797 2.016
-0.30408499 0.096674412 2.0050001
-0.29877064 0.096095815 1.9930001
-0.29349837 0.095517218 1.9810001
-0.290025 0.095517218 1.9810001
-0.21165626 0.088863313 1.8430001
-0.20842487 0.088863313 1.8430001
-0.20519347 0.088863313 1.8430001
-0.20086625 0.088381149 1.8330001
-0.19765238 0.088381149 1.8330001
-0.19443853 0.088381149 1.8330001
-0.19018143 0.087898985 1.8230001
-0.18595941 0.087416813 1.8130001
-0.18187326 0.086982869 1.8040001
-0.17871025 0.086982869 1.8040001
-0.17554724 0.086982869 1.8040001
-0.17142867 0.086500697 1.794
-0.16828318 0.086500697 1.794
-0.16430925 0.086066753 1.7850001
-0.16117954 0.086066753 1.7850001
-0.15725295 0.085632801 1.7760001
-0.15327114 0.085150629 1.766
-0.15017475 0.085150629 1.766
-0.14707837 0.085150629 1.766
-0.14398198 0.085150629 1.766
-0.14016761 0.084716685 1.7570001
-0.137087 0.084716685 1.7570001
-0.13331996 0.084282734 1.748
-0.13025513 0.084282734 1.748
-0.12719031 0.084282734 1.748
-0.12412548 0.084282734 1.748
-0.12106065 0.084282734 1.748
-0.1267774 0.095517218 1.9810001
-0.12330404 0.095517218 1.9810001
-0.11983069 0.095517218 1.9810001
-0.11571123 0.094986834 1.9700001
-0.11225717 0.094986834 1.9700001
-0.10819557 0.094456449 1.9590001
-0.10476079 0.094456449 1.9590001
-0.068240613 0.13900866 2.8830001
-0.063185751 0.13900866 2.8830001
-0.05813089 0.13900866 2.8830001
-0.053076029 0.13900866 2.8830001
-0.048021171 0.13900866 2.8830001
-0.04296631 0.13900866 2.8830001
-0.037911449 0.13900866 2.8830001
-0.032856591 0.13900866 2.8830001
-0.02780173 0.13900866 2.8830001
-0.023141369 0.14141949 2.9330001
-0.017998843 0.14141949 2.9330001
-0.012856317 0.14141949 2.9330001
-0.0077137901 0.14141949 2.9330001
-0.0025493465 0.14021407 2.9080002
0.0025493465 0.14021407 2.9080002
0.0076480401 0.14021407 2.9080002
0.012746734 0.14021407 2.9080002
0.017845426 0.14021407 2.9080002
0.02274687 0.13900866 2.8830001
0.02780173 0.13900866 2.8830001
0.032856591 0.13900866 2.8830001
0.037911449 0.13900866 2.8830001
0.04260863 0.13785145 2.8590002
0.04762141 0.13785145 2.8590002
0.052192349 0.13669425 2.835
0.056699295 0.13558526 2.812
0.061629668 0.13558526 2.812
0.066560037 0.13558526 2.812
0.070905678 0.13447629 2.789
0.071909457 0.0627781 1.302
0.15516561 0.13129398 2.723
0.15993994 0.13129398 2.723
0.16471426 0.13129398 2.723
0.16948859 0.13129398 2.723
0.17426293 0.13129398 2.723
0.17903724 0.13129398 2.723
0.18381158 0.13129398 2.723
0.18858591 0.13129398 2.723
0.19336022 0.13129398 2.723
0.19813456 0.13129398 2.723
0.20126952 0.13023321 2.7010002
0.20600528 0.13023321 2.7010002
0.21074103 0.13023321 2.7010002
0.21547678 0.13023321 2.7010002
0.22021253 0.13023321 2.7010002
0.22494829 0.13023321 2.7010002
0.22968404 0.13023321 2.7010002
0.23441979 0.13023321 2.7010002
0.23915555 0.13023321 2.7010002
0.24199507 0.12922066 2.6800001
0.246694 0.12922066 2.6800001
0.25139293 0.12922066 2.6800001
0.12890594 0.065044284 1.3490001
0.13127118 0.065044284 1.3490001
0.26340941 0.12820812 2.6590002
0.2680715 0.12820812 2.6590002
0.27273363 0.12820812 2.6590002
0.27739576 0.12820812 2.6590002
0.28205785 0.12820812 2.6590002
0.28456336 0.12724379 2.6390002
0.28919041 0.12724379 2.6390002
0.29381746 0.12724379 2.6390002
0.29844451 0.12724379 2.6390002
0.15549788 0.06528537 1.3540001
0.15787189 0.06528537 1.3540001
0.1602459 0.06528537 1.3540001
0.16261992 0.06528537 1.3540001
0.16499393 0.06528537 1.3540001
0.16736794 0.06528537 1.3540001
0.17036878 0.065526448 1.3590001
0.17275155 0.065526448 1.3590001
0.17590755 0.065815747 1.365
0.17751712 0.065526448 1.3590001
0.17989989 0.065526448 1.3590001
0.18228267 0.065526448 1.3590001
0.18548074 0.065815747 1.365
0.18787405 0.065815747 1.365
0.19026735 0.065815747 1.365
0.19336636 0.066056833 1.3700001
0.19576843 0.066056833 1.3700001
0.1981705 0.066056833 1.3700001
0.20057257 0.066056833 1.3700001
0.20297463 0.066056833 1.3700001
0.2053767 0.066056833 1.3700001
0.20868875 0.066346131 1.376
0.21110134 0.066346131 1.376
0.21351393 0.066346131 1.376
0.21498497 0.066056833 1.3700001
0.21738704 0.066056833 1.3700001
0.2197891 0.066056833 1.3700001
0.22219117 0.066056833 1.3700001
0.22459324 0.066056833 1.3700001
0.22798944 0.066346131 1.376
0.23123924 0.066587217 1.381
0.23366059 0.066587217 1.381
0.23710765 0.066876516 1.3870001
0.23953952 0.066876516 1.3870001
0.24197139 0.066876516 1.3870001
0.24528432 0.067117602 1.3920001
0.24772497 0.067117602 1.3920001
0.25016561 0.067117602 1.3920001
0.25260624 0.067117602 1.3920001
0.25504687 0.067117602 1.3920001
0.25859737 0.0674069 1.3980001
0.26104853 0.0674069 1.3980001
0.26349971 0.0674069 1.3980001
0.26595086 0.0674069 1.3980001
0.26840201 0.0674069 1.3980001
